# .PCD v0.7 - Point Cloud Data file format
VERSION 0.7
FIELDS x y z rgb
SIZE 4 4 4 4
TYPE F F F F
COUNT 1 1 1 1
WIDTH 1005
HEIGHT 1
VIEWPOINT 0 0 0 1 0 0 0
POINTS 1005
DATA ascii
0.41511446 -0.30491686 0.84086245 4.9062304e-39
0.42457697 -0.30475858 0.84217161 4.9062304e-39
0.43516317 -0.30538312 0.84230423 4.9062304e-39
0.44523424 -0.30502433 0.84205967 4.9062304e-39
0.45227298 -0.30558494 0.84167182 4.9062304e-39
0.41900182 -0.29587877 0.8402909 4.9062304e-39
0.42533627 -0.29501858 0.84182006 4.9062304e-39
0.43486744 -0.29486391 0.84311342 4.9062304e-39
0.44475037 -0.29514101 0.84185976 4.9062304e-39
0.45092991 -0.29790273 0.84104824 4.9062304e-39
0.41992491 -0.28925711 0.84004927 4.9062304e-39
0.42540389 -0.28528038 0.84109521 4.9062304e-39
0.43443993 -0.28485385 0.84235507 4.9062304e-39
0.44255453 -0.28680471 0.84101319 4.9062304e-39
0.42595014 -0.27969247 0.84263182 4.9062304e-39
0.43446642 -0.27944508 0.8402372 4.9062304e-39
0.46404958 -0.39057803 0.85176075 4.9062304e-39
0.47564793 -0.39112723 0.85909575 4.9062304e-39
0.45205811 -0.38129896 0.85839814 4.9062304e-39
0.45017317 -0.37866449 0.85208857 4.9062304e-39
0.46651709 -0.37453571 0.85870647 4.9062304e-39
0.46351862 -0.36990631 0.85842466 4.9062304e-39
0.62714672 -0.29550722 0.62272608 1.2782338e-38
0.6163289 -0.28390208 0.6269353 1.2782338e-38
0.62093538 -0.28998548 0.62904096 1.2782338e-38
0.60750198 -0.27294168 0.62706697 1.2782338e-38
0.61276531 -0.27900544 0.62551111 1.2782338e-38
0.59899497 -0.26189965 0.62543756 1.2782338e-38
0.60309684 -0.26705188 0.62678307 1.2782338e-38
0.59376204 -0.25484875 0.6263209 1.2782338e-38
0.58598328 -0.24477857 0.62649506 1.2782338e-38
0.57671088 -0.2333332 0.62664443 1.2782338e-38
0.58105069 -0.23850328 0.62519079 1.2782338e-38
0.59694386 -0.23765513 0.62112004 1.2782338e-38
0.56758344 -0.22231229 0.62856215 1.2782338e-38
0.57206011 -0.22709665 0.62548399 1.2782338e-38
0.55924875 -0.21156009 0.62705594 1.2782338e-38
0.5623042 -0.21552961 0.6272856 1.2782338e-38
0.55406225 -0.20482296 0.62537134 1.2782338e-38
0.5745014 -0.20480299 0.62259245 1.2782338e-38
0.54671258 -0.19455397 0.62506217 1.2782338e-38
0.55010998 -0.19938076 0.62729561 1.2782338e-38
0.53943723 -0.18130831 0.6236344 1.2782338e-38
0.54204422 -0.18629867 0.62532878 1.2782338e-38
0.53627908 -0.17471062 0.62542659 1.2782338e-38
0.53732646 -0.16850927 0.62377983 1.2782338e-38
0.544963 -0.16418511 0.62473696 1.2782338e-38
0.55184293 -0.16120894 0.62695116 1.2782338e-38
0.5558399 -0.15731819 0.6236878 1.2782338e-38
0.56379378 -0.15433116 0.62547177 1.2782338e-38
0.57007176 -0.15090449 0.62887156 1.2782338e-38
0.62883443 -0.30110997 0.63638723 1.2782338e-38
0.63192534 -0.30377191 0.63685346 1.2782338e-38
0.62469852 -0.29513961 0.63515753 1.2782338e-38
0.6424306 -0.29354677 0.63449878 1.2782338e-38
0.61747003 -0.28377756 0.63460225 1.2782338e-38
0.62097096 -0.288919 0.63580889 1.2782338e-38
0.60823327 -0.27197176 0.63357514 1.2782338e-38
0.61231077 -0.27660608 0.63534862 1.2782338e-38
0.63266015 -0.27321818 0.63691628 1.2782338e-38
0.59912735 -0.26140165 0.63050061 1.2782338e-38
0.60365558 -0.26557958 0.63535321 1.2782338e-38
0.59557438 -0.25543901 0.63505882 1.2782338e-38
0.61474532 -0.25581023 0.63296378 1.2782338e-38
0.58689535 -0.24432991 0.63509423 1.2782338e-38
0.59086263 -0.24921647 0.63567013 1.2782338e-38
0.57736707 -0.23326811 0.63484293 1.2782338e-38
0.58161551 -0.23805772 0.63544655 1.2782338e-38
0.56780517 -0.22204888 0.63546115 1.2782338e-38
0.57206428 -0.22711597 0.63444078 1.2782338e-38
0.55896378 -0.21091929 0.63435072 1.2782338e-38
0.56309563 -0.21615331 0.63489014 1.2782338e-38
0.55444109 -0.20480755 0.63532513 1.2782338e-38
0.54762053 -0.19439733 0.6349377 1.2782338e-38
0.55073571 -0.19881038 0.63792187 1.2782338e-38
0.53933662 -0.18049377 0.63145185 1.2782338e-38
0.54218686 -0.18527624 0.63513917 1.2782338e-38
0.53724253 -0.17457268 0.63526654 1.2782338e-38
0.54010838 -0.17930189 0.63999909 1.2782338e-38
0.53823197 -0.16884251 0.6357857 1.2782338e-38
0.54487902 -0.16533186 0.6353457 1.2782338e-38
0.55295902 -0.16137443 0.63438064 1.2782338e-38
0.55797756 -0.15878741 0.63433194 1.2782338e-38
0.5653041 -0.15457022 0.63493341 1.2782338e-38
0.57170755 -0.15093799 0.63683134 1.2782338e-38
0.55486047 -0.14126816 0.63816863 1.2782338e-38
0.62936664 -0.30091417 0.64717555 1.2782338e-38
0.63187051 -0.3044472 0.64952558 1.2782338e-38
0.6254878 -0.29448849 0.64514071 1.2782338e-38
0.61826789 -0.28247398 0.64451277 1.2782338e-38
0.62141496 -0.28729442 0.6455071 1.2782338e-38
0.60916483 -0.27057686 0.64228237 1.2782338e-38
0.61379331 -0.27586514 0.64489394 1.2782338e-38
0.60498357 -0.26520085 0.64513201 1.2782338e-38
0.59616172 -0.25421306 0.64450306 1.2782338e-38
0.60024333 -0.2591581 0.64669502 1.2782338e-38
0.58758235 -0.24321924 0.64469719 1.2782338e-38
0.59163314 -0.248263 0.64550513 1.2782338e-38
0.60181952 -0.24514274 0.64992911 1.2782338e-38
0.57817912 -0.2321195 0.64536834 1.2782338e-38
0.58252364 -0.23700425 0.64537632 1.2782338e-38
0.56889743 -0.22221881 0.64410454 1.2782338e-38
0.57325351 -0.22679891 0.64498687 1.2782338e-38
0.55932277 -0.21038923 0.64476216 1.2782338e-38
0.56352383 -0.2155932 0.64512211 1.2782338e-38
0.55545402 -0.2047957 0.64460295 1.2782338e-38
0.54737002 -0.1932482 0.64542568 1.2782338e-38
0.55116713 -0.19837141 0.64422625 1.2782338e-38
0.54312623 -0.18495564 0.64498073 1.2782338e-38
0.5381881 -0.17392994 0.64474064 1.2782338e-38
0.54051435 -0.17900798 0.64650375 1.2782338e-38
0.55690843 -0.17715834 0.64778203 1.2782338e-38
0.53801203 -0.1689862 0.64465171 1.2782338e-38
0.54478037 -0.16543424 0.64414716 1.2782338e-38
0.55324829 -0.16136913 0.64355206 1.2782338e-38
0.55865562 -0.15869644 0.64269161 1.2782338e-38
0.56465429 -0.15574388 0.64301485 1.2782338e-38
0.57278812 -0.15155511 0.64219773 1.2782338e-38
0.62341839 -0.31068206 0.65843993 1.2782338e-38
0.63516748 -0.30348605 0.65305114 1.2782338e-38
0.64070034 -0.30592757 0.65637863 1.2782338e-38
0.62771744 -0.29432741 0.65157825 1.2782338e-38
0.63218623 -0.2979666 0.65342414 1.2782338e-38
0.61930186 -0.28171909 0.6552254 1.2782338e-38
0.62256438 -0.28654239 0.65324312 1.2782338e-38
0.61435282 -0.27481723 0.65521932 1.2782338e-38
0.60553026 -0.26410741 0.65493959 1.2782338e-38
0.61030054 -0.26942316 0.6568681 1.2782338e-38
0.59705007 -0.25369126 0.65478092 1.2782338e-38
0.60093015 -0.25813049 0.65647554 1.2782338e-38
0.5882324 -0.24251416 0.65458649 1.2782338e-38
0.59193492 -0.24707814 0.6551826 1.2782338e-38
0.57876742 -0.23101926 0.65396798 1.2782338e-38
0.58336532 -0.23643614 0.6552422 1.2782338e-38
0.56801856 -0.22103672 0.65294576 1.2782338e-38
0.57388484 -0.22515711 0.65489978 1.2782338e-38
0.5597381 -0.210196 0.6509409 1.2782338e-38
0.56517071 -0.21527579 0.65573436 1.2782338e-38
0.55636072 -0.20516877 0.65503931 1.2782338e-38
0.54807925 -0.19302727 0.65560311 1.2782338e-38
0.55118603 -0.19805023 0.65575397 1.2782338e-38
0.54399627 -0.1853672 0.65465772 1.2782338e-38
0.53829634 -0.17368378 0.65514863 1.2782338e-38
0.54076606 -0.1788533 0.65396231 1.2782338e-38
0.55278069 -0.17435011 0.6546784 1.2782338e-38
0.52757037 -0.16419944 0.6530962 1.2782338e-38
0.53814888 -0.16740189 0.65646785 1.2782338e-38
0.5418328 -0.16082984 0.65508091 1.2782338e-38
0.54717183 -0.15756787 0.65853596 1.2782338e-38
0.55721235 -0.15303099 0.65831316 1.2782338e-38
0.56530219 -0.15146078 0.65334082 1.2782338e-38
0.56737107 -0.14881143 0.65815139 1.2782338e-38
0.57235229 -0.14819562 0.65562546 1.2782338e-38
0.63561547 -0.30262759 0.66642112 1.2782338e-38
0.62641823 -0.29288062 0.66662508 1.2782338e-38
0.63153839 -0.29828426 0.66697353 1.2782338e-38
0.61923635 -0.2812658 0.6644814 1.2782338e-38
0.62205178 -0.28622538 0.665618 1.2782338e-38
0.61590409 -0.27535582 0.66529989 1.2782338e-38
0.63423556 -0.27305213 0.6629737 1.2782338e-38
0.60716164 -0.26404244 0.66479963 1.2782338e-38
0.61120868 -0.26891351 0.66493356 1.2782338e-38
0.59752518 -0.25218228 0.66503668 1.2782338e-38
0.60191011 -0.25756425 0.66517758 1.2782338e-38
0.58856732 -0.24111576 0.66394126 1.2782338e-38
0.59271091 -0.24611358 0.66513664 1.2782338e-38
0.57911217 -0.23032741 0.66014242 1.2782338e-38
0.58395213 -0.23509109 0.66532773 1.2782338e-38
0.5575273 -0.22363614 0.66654074 1.2782338e-38
0.57558978 -0.22497544 0.66499394 1.2782338e-38
0.5665679 -0.21441703 0.66515577 1.2782338e-38
0.57132173 -0.21921675 0.66747946 1.2782338e-38
0.55694324 -0.20388223 0.66494262 1.2782338e-38
0.56147182 -0.20869571 0.66585797 1.2782338e-38
0.57544076 -0.20539524 0.66962051 1.2782338e-38
0.54864305 -0.19211762 0.66447115 1.2782338e-38
0.55198938 -0.1973294 0.6648168 1.2782338e-38
0.54418898 -0.18477653 0.6648953 1.2782338e-38
0.53859121 -0.17324777 0.66447783 1.2782338e-38
0.54155421 -0.1773594 0.66701132 1.2782338e-38
0.53846151 -0.16546828 0.66485232 1.2782338e-38
0.54135245 -0.16094603 0.66510272 1.2782338e-38
0.54605091 -0.15779081 0.66567439 1.2782338e-38
0.55445111 -0.15295388 0.66592878 1.2782338e-38
0.56607717 -0.15017343 0.66707706 1.2782338e-38
0.56519341 -0.14945239 0.66520166 1.2782338e-38
0.5746187 -0.14849305 0.66522437 1.2782338e-38
0.58079147 -0.14893313 0.66847813 1.2782338e-38
0.63673109 -0.30284458 0.67519373 1.2782338e-38
0.62711132 -0.29312372 0.67551178 1.2782338e-38
0.63169068 -0.29803121 0.6745261 1.2782338e-38
0.61935556 -0.28028673 0.67467225 1.2782338e-38
0.62220788 -0.28525195 0.6748625 1.2782338e-38
0.61627328 -0.27476227 0.67529154 1.2782338e-38
0.59641695 -0.26177296 0.67703235 1.2782338e-38
0.60756564 -0.26298615 0.6750524 1.2782338e-38
0.61207622 -0.26834175 0.67552966 1.2782338e-38
0.63007164 -0.26284158 0.67788678 1.2782338e-38
0.59887564 -0.25226524 0.67460686 1.2782338e-38
0.60273957 -0.25694254 0.67535162 1.2782338e-38
0.58892918 -0.24006821 0.67129767 1.2782338e-38
0.59339195 -0.2452516 0.67484176 1.2782338e-38
0.5852536 -0.2346507 0.6749357 1.2782338e-38
0.57677811 -0.22444953 0.67473716 1.2782338e-38
0.58135891 -0.22924019 0.67680633 1.2782338e-38
0.56681198 -0.21236324 0.67442924 1.2782338e-38
0.57186866 -0.21761602 0.6759643 1.2782338e-38
0.55785078 -0.20242433 0.67564994 1.2782338e-38
0.5624063 -0.2075889 0.6746071 1.2782338e-38
0.54893339 -0.19205335 0.67523861 1.2782338e-38
0.55276507 -0.19685563 0.67534804 1.2782338e-38
0.54583704 -0.18520704 0.6750074 1.2782338e-38
0.53984934 -0.17051578 0.67626619 1.2782338e-38
0.54197854 -0.17570417 0.67505729 1.2782338e-38
0.53846753 -0.16553292 0.67501098 1.2782338e-38
0.54123276 -0.16097555 0.6741482 1.2782338e-38
0.54633343 -0.15764642 0.67554325 1.2782338e-38
0.55489296 -0.15320109 0.67501479 1.2782338e-38
0.56131059 -0.1505214 0.67645192 1.2782338e-38
0.5653646 -0.14880133 0.67768377 1.2782338e-38
0.57724512 -0.14982583 0.67035007 1.2782338e-38
0.63667655 -0.30067185 0.68162817 1.2782338e-38
0.64089322 -0.3033573 0.68197948 1.2782338e-38
0.6267221 -0.29246649 0.68527931 1.2782338e-38
0.6321516 -0.29723582 0.6841839 1.2782338e-38
0.61984086 -0.28075701 0.68430436 1.2782338e-38
0.62275708 -0.28584638 0.68544787 1.2782338e-38
0.61691344 -0.27506158 0.68548095 1.2782338e-38
0.60806686 -0.26215616 0.68623191 1.2782338e-38
0.61194748 -0.26718554 0.68458968 1.2782338e-38
0.59920973 -0.25114068 0.68441033 1.2782338e-38
0.60315573 -0.25605252 0.68479049 1.2782338e-38
0.59444606 -0.24505809 0.68504286 1.2782338e-38
0.58675528 -0.23501885 0.68500245 1.2782338e-38
0.57774997 -0.22314161 0.68470722 1.2782338e-38
0.58179343 -0.22834615 0.68555152 1.2782338e-38
0.56815547 -0.2116631 0.68400139 1.2782338e-38
0.57270634 -0.21657862 0.68530875 1.2782338e-38
0.5588786 -0.20148121 0.68523282 1.2782338e-38
0.56337762 -0.20636021 0.68497652 1.2782338e-38
0.54966331 -0.19113111 0.68256778 1.2782338e-38
0.55332208 -0.19536503 0.68532908 1.2782338e-38
0.54618216 -0.18506382 0.68617445 1.2782338e-38
0.53901398 -0.17288682 0.68667716 1.2782338e-38
0.54134852 -0.17677474 0.68799984 1.2782338e-38
0.53807962 -0.16526125 0.68555605 1.2782338e-38
0.54090559 -0.16055624 0.6853835 1.2782338e-38
0.54526919 -0.15755928 0.68606061 1.2782338e-38
0.55500776 -0.15250997 0.68436176 1.2782338e-38
0.55965221 -0.14969103 0.68877614 1.2782338e-38
0.56554413 -0.14864035 0.68511963 1.2782338e-38
0.57391781 -0.14701028 0.68478137 1.2782338e-38
0.64072442 -0.3036536 0.69472241 1.2782338e-38
0.62766784 -0.29213068 0.69479209 1.2782338e-38
0.63262552 -0.29732019 0.69618243 1.2782338e-38
0.6235835 -0.28504404 0.69509089 1.2782338e-38
0.60974139 -0.27451205 0.69241911 1.2782338e-38
0.61750036 -0.2748031 0.69443464 1.2782338e-38
0.62054396 -0.27965969 0.69727665 1.2782338e-38
0.60888118 -0.26180992 0.6953091 1.2782338e-38
0.61253005 -0.26680565 0.69520301 1.2782338e-38
0.60361731 -0.25506628 0.69500816 1.2782338e-38
0.59573758 -0.24487987 0.69530648 1.2782338e-38
0.573852 -0.23715837 0.69068211 1.2782338e-38
0.58715272 -0.23395112 0.69472474 1.2782338e-38
0.59117305 -0.23904422 0.6952244 1.2782338e-38
0.57825166 -0.22260195 0.6945473 1.2782338e-38
0.58199555 -0.22728172 0.69525158 1.2782338e-38
0.5690878 -0.21089739 0.69516587 1.2782338e-38
0.57324493 -0.21617401 0.69523168 1.2782338e-38
0.56413025 -0.20505947 0.69491005 1.2782338e-38
0.55495936 -0.1948694 0.69483608 1.2782338e-38
0.54738504 -0.18456279 0.69495201 1.2782338e-38
0.55068105 -0.18951291 0.69642085 1.2782338e-38
0.53984058 -0.17090121 0.69411588 1.2782338e-38
0.54284585 -0.17590067 0.69325936 1.2782338e-38
0.53906423 -0.16550034 0.6943568 1.2782338e-38
0.54168117 -0.16303101 0.69440144 1.2782338e-38
0.54612356 -0.15687993 0.69449228 1.2782338e-38
0.55347002 -0.15171337 0.69474453 1.2782338e-38
0.57551122 -0.15015607 0.69704151 1.2782338e-38
0.55906171 -0.14989415 0.69829828 1.2782338e-38
0.56510365 -0.14823297 0.69524747 1.2782338e-38
0.57391942 -0.14615105 0.6948427 1.2782338e-38
0.63614339 -0.30325082 0.70428115 1.2782338e-38
0.62846935 -0.29138058 0.70373535 1.2782338e-38
0.63341266 -0.29645696 0.70500678 1.2782338e-38
0.62440658 -0.28510618 0.7052815 1.2782338e-38
0.61760408 -0.27394348 0.70489085 1.2782338e-38
0.62063277 -0.27901596 0.70456827 1.2782338e-38
0.60948396 -0.26086137 0.70363045 1.2782338e-38
0.61274803 -0.265775 0.70538193 1.2782338e-38
0.60523039 -0.25491211 0.70513386 1.2782338e-38
0.59665686 -0.24376446 0.70500571 1.2782338e-38
0.60052919 -0.24899317 0.70406055 1.2782338e-38
0.5880267 -0.23306067 0.70460492 1.2782338e-38
0.59221381 -0.23808756 0.70512694 1.2782338e-38
0.57830167 -0.22128387 0.70399171 1.2782338e-38
0.582542 -0.22623913 0.70517719 1.2782338e-38
0.56973302 -0.21065676 0.70368648 1.2782338e-38
0.57389766 -0.21554118 0.70546955 1.2782338e-38
0.56551564 -0.20504102 0.70525545 1.2782338e-38
0.55650252 -0.1941026 0.70459384 1.2782338e-38
0.5608989 -0.19913888 0.70590687 1.2782338e-38
0.548154 -0.18268596 0.70407158 1.2782338e-38
0.55190372 -0.18693176 0.70618755 1.2782338e-38
0.53938353 -0.17111376 0.70221412 1.2782338e-38
0.54389673 -0.17530097 0.70567715 1.2782338e-38
0.53951186 -0.16738954 0.70254242 1.2782338e-38
0.54081255 -0.16388839 0.7057299 1.2782338e-38
0.54459476 -0.1561275 0.7053768 1.2782338e-38
0.5551855 -0.15142889 0.70496851 1.2782338e-38
0.56532323 -0.14854923 0.70415652 1.2782338e-38
0.57479835 -0.14599133 0.7044583 1.2782338e-38
0.58053529 -0.1452183 0.70909482 1.2782338e-38
0.63803113 -0.30038142 0.71237266 1.2782338e-38
0.62882203 -0.29028273 0.71019363 1.2782338e-38
0.63383114 -0.29496768 0.71513146 1.2782338e-38
0.65314579 -0.29924837 0.71288389 1.2782338e-38
0.62583357 -0.28485629 0.71488094 1.2782338e-38
0.61842638 -0.27340835 0.71432221 1.2782338e-38
0.62238467 -0.2780939 0.71607959 1.2782338e-38
0.61345792 -0.2651802 0.71510851 1.2782338e-38
0.60653305 -0.25502494 0.71498054 1.2782338e-38
0.61003363 -0.25985658 0.71639615 1.2782338e-38
0.59736705 -0.2428159 0.71500069 1.2782338e-38
0.60151809 -0.24807273 0.71470529 1.2782338e-38
0.58862329 -0.23194358 0.71472096 1.2782338e-38
0.59256929 -0.23680907 0.71512055 1.2782338e-38
0.57890332 -0.22036527 0.71224582 1.2782338e-38
0.58328635 -0.22525707 0.71531349 1.2782338e-38
0.57484519 -0.21491726 0.7149232 1.2782338e-38
0.56673014 -0.20485666 0.71514386 1.2782338e-38
0.57132733 -0.20976284 0.71881551 1.2782338e-38
0.58363169 -0.20160964 0.71773797 1.2782338e-38
0.55716479 -0.19333008 0.71486247 1.2782338e-38
0.56140316 -0.19840565 0.71505022 1.2782338e-38
0.54926413 -0.1816411 0.71583986 1.2782338e-38
0.55233353 -0.18665837 0.71517718 1.2782338e-38
0.54625851 -0.17464295 0.71281993 1.2782338e-38
0.5422594 -0.16433501 0.71450192 1.2782338e-38
0.54638559 -0.15620914 0.71402985 1.2782338e-38
0.55181879 -0.15191391 0.71639532 1.2782338e-38
0.55632287 -0.1492599 0.71593225 1.2782338e-38
0.5652355 -0.14721292 0.71525866 1.2782338e-38
0.57517791 -0.14614554 0.71479219 1.2782338e-38
0.58163184 -0.14553401 0.71508038 1.2782338e-38
0.63512957 -0.29458943 0.72505957 1.2782338e-38
0.64124703 -0.29876721 0.72931778 1.2782338e-38
0.62665164 -0.28367591 0.72540116 1.2782338e-38
0.63072276 -0.28904742 0.72616076 1.2782338e-38
0.61910379 -0.2722066 0.72437072 1.2782338e-38
0.62224138 -0.27705279 0.72494334 1.2782338e-38
0.6148169 -0.26534247 0.72490722 1.2782338e-38
0.58758569 -0.25310346 0.72730792 1.2782338e-38
0.60720217 -0.25439599 0.72457993 1.2782338e-38
0.61097592 -0.2593188 0.72729897 1.2782338e-38
0.623276 -0.25697139 0.72305405 1.2782338e-38
0.59833807 -0.24253127 0.72516948 1.2782338e-38
0.60218322 -0.24742231 0.72490704 1.2782338e-38
0.58925116 -0.23123577 0.72426766 1.2782338e-38
0.59327632 -0.23612197 0.72524709 1.2782338e-38
0.58432597 -0.22483264 0.72510272 1.2782338e-38
0.57599211 -0.21436475 0.72466403 1.2782338e-38
0.58039069 -0.21936297 0.72731292 1.2782338e-38
0.5669961 -0.20316507 0.72425789 1.2782338e-38
0.57123655 -0.20796153 0.72639406 1.2782338e-38
0.55810446 -0.19250655 0.72466046 1.2782338e-38
0.562298 -0.19730373 0.72518802 1.2782338e-38
0.54887259 -0.18174796 0.72384065 1.2782338e-38
0.552966 -0.18635836 0.72561824 1.2782338e-38
0.54505259 -0.1745884 0.72531378 1.2782338e-38
0.54366845 -0.16569901 0.72447479 1.2782338e-38
0.54596543 -0.15529877 0.72609401 1.2782338e-38
0.55337936 -0.15072076 0.72002673 1.2782338e-38
0.54645824 -0.14810067 0.72452974 1.2782338e-38
0.55437917 -0.14845778 0.7253387 1.2782338e-38
0.56634659 -0.14652212 0.72460538 1.2782338e-38
0.57732671 -0.14566058 0.72610945 1.2782338e-38
0.63632292 -0.29267061 0.73453426 1.2782338e-38
0.64211428 -0.29760644 0.73391074 1.2782338e-38
0.608145 -0.28604323 0.73211205 1.2782338e-38
0.6197626 -0.28209054 0.73212945 1.2782338e-38
0.62792504 -0.28344032 0.73465061 1.2782338e-38
0.63212162 -0.28791407 0.73607308 1.2782338e-38
0.61939365 -0.27091241 0.73468733 1.2782338e-38
0.62287533 -0.27609652 0.7352736 1.2782338e-38
0.6153186 -0.26477391 0.73483664 1.2782338e-38
0.60727185 -0.25349531 0.73487544 1.2782338e-38
0.61092883 -0.2582995 0.73559016 1.2782338e-38
0.59847707 -0.2420751 0.7351594 1.2782338e-38
0.60230762 -0.24720137 0.73515379 1.2782338e-38
0.58963978 -0.23030515 0.73328745 1.2782338e-38
0.59383154 -0.23546384 0.73489141 1.2782338e-38
0.58586645 -0.22506025 0.73525727 1.2782338e-38
0.59875876 -0.22660258 0.73064429 1.2782338e-38
0.57680124 -0.21370223 0.73483276 1.2782338e-38
0.58090597 -0.21877782 0.73497009 1.2782338e-38
0.56788051 -0.20261961 0.73514247 1.2782338e-38
0.57195091 -0.20755613 0.73564684 1.2782338e-38
0.54302055 -0.19783756 0.73614824 1.2782338e-38
0.55870086 -0.19150169 0.73465681 1.2782338e-38
0.56284827 -0.19669369 0.73542553 1.2782338e-38
0.54860204 -0.18035655 0.73063433 1.2782338e-38
0.55342573 -0.1851335 0.73526174 1.2782338e-38
0.5476706 -0.17506093 0.73540366 1.2782338e-38
0.55066031 -0.1788156 0.73911589 1.2782338e-38
0.59521955 -0.17549789 0.73897797 1.2782338e-38
0.54495478 -0.16519757 0.7365545 1.2782338e-38
0.54657656 -0.15597077 0.73400795 1.2782338e-38
0.55090898 -0.15100993 0.73390609 1.2782338e-38
0.55468971 -0.14749549 0.73546696 1.2782338e-38
0.56309199 -0.14540645 0.73566908 1.2782338e-38
0.57414889 -0.14505807 0.73491961 1.2782338e-38
0.58092821 -0.14452994 0.73845553 1.2782338e-38
0.54917407 -0.13404773 0.7341882 1.2782338e-38
0.63789034 -0.29193243 0.74473363 1.2782338e-38
0.64125431 -0.29590264 0.74448591 1.2782338e-38
0.62907916 -0.28184184 0.74443215 1.2782338e-38
0.63330543 -0.28648847 0.74534923 1.2782338e-38
0.62387937 -0.27469626 0.74510282 1.2782338e-38
0.67344826 -0.27476248 0.74882728 1.2782338e-38
0.60646117 -0.26933488 0.74231297 1.2782338e-38
0.61648458 -0.26492265 0.74464452 1.2782338e-38
0.62053853 -0.26938242 0.74969113 1.2782338e-38
0.66876948 -0.26468569 0.74949682 1.2782338e-38
0.67042291 -0.26375419 0.74790221 1.2782338e-38
0.60742819 -0.25316533 0.74573785 1.2782338e-38
0.61127287 -0.25801465 0.7445128 1.2782338e-38
0.66717356 -0.25583443 0.74797744 1.2782338e-38
0.59877586 -0.24223164 0.74477136 1.2782338e-38
0.6025722 -0.2471412 0.74539357 1.2782338e-38
0.6581924 -0.24252535 0.7477349 1.2782338e-38
0.66288263 -0.24836995 0.74754667 1.2782338e-38
0.59359813 -0.23501395 0.74518049 1.2782338e-38
0.64819795 -0.23240305 0.7490139 1.2782338e-38
0.65307403 -0.23473179 0.74646306 1.2782338e-38
0.58628213 -0.22484593 0.74542135 1.2782338e-38
0.59020346 -0.22963166 0.74890637 1.2782338e-38
0.61162114 -0.22266568 0.74670404 1.2782338e-38
0.64578372 -0.22541712 0.74683547 1.2782338e-38
0.65004754 -0.22869392 0.74486637 1.2782338e-38
0.57769412 -0.2132438 0.74504155 1.2782338e-38
0.58156484 -0.21806005 0.74609739 1.2782338e-38
0.63576251 -0.21527912 0.74930239 1.2782338e-38
0.64107996 -0.21836728 0.74697185 1.2782338e-38
0.56811929 -0.20186816 0.74429679 1.2782338e-38
0.57295537 -0.20677653 0.74606913 1.2782338e-38
0.6273151 -0.20119517 0.74724919 1.2782338e-38
0.63134241 -0.20667762 0.74769449 1.2782338e-38
0.55944842 -0.19076461 0.74343854 1.2782338e-38
0.56378305 -0.1952733 0.74568653 1.2782338e-38
0.61811775 -0.19110166 0.74992752 1.2782338e-38
0.62425303 -0.19588636 0.74697578 1.2782338e-38
0.55553156 -0.18472472 0.74499422 1.2782338e-38
0.56004119 -0.18828383 0.74966079 1.2782338e-38
0.61403906 -0.18417928 0.74917197 1.2782338e-38
0.54889309 -0.17322433 0.74691588 1.2782338e-38
0.55141699 -0.17653964 0.74490106 1.2782338e-38
0.60672736 -0.1735642 0.74867481 1.2782338e-38
0.61028862 -0.17882702 0.74900997 1.2782338e-38
0.54802042 -0.16449019 0.74314344 1.2782338e-38
0.55008835 -0.16957451 0.74290025 1.2782338e-38
0.5994069 -0.16307428 0.74805212 1.2782338e-38
0.60186321 -0.16606617 0.74807817 1.2782338e-38
0.54715145 -0.15490681 0.74530828 1.2782338e-38
0.55052584 -0.15051231 0.74005407 1.2782338e-38
0.59743065 -0.15983288 0.74675107 1.2782338e-38
0.54991311 -0.14998509 0.74310893 1.2782338e-38
0.55509073 -0.1482891 0.74380922 1.2782338e-38
0.56471503 -0.14626537 0.74358064 1.2782338e-38
0.57521075 -0.14503399 0.74525225 1.2782338e-38
0.58123207 -0.14845419 0.74966264 1.2782338e-38
0.63927925 -0.29109147 0.75222301 1.2782338e-38
0.64513391 -0.29341716 0.75389415 1.2782338e-38
0.65511549 -0.29429534 0.75700915 1.2782338e-38
0.66207731 -0.29371521 0.75882399 1.2782338e-38
0.63520581 -0.28395611 0.75488275 1.2782338e-38
0.64446747 -0.28511137 0.75786853 1.2782338e-38
0.65488112 -0.28506193 0.7584663 1.2782338e-38
0.66400963 -0.2833361 0.75675809 1.2782338e-38
0.62660909 -0.27385208 0.75497633 1.2782338e-38
0.63443577 -0.27654016 0.75923592 1.2782338e-38
0.64605069 -0.27573022 0.75927407 1.2782338e-38
0.6556952 -0.27481648 0.7575959 1.2782338e-38
0.66383064 -0.27501929 0.75531316 1.2782338e-38
0.67081314 -0.27632663 0.75135201 1.2782338e-38
0.61777133 -0.26345685 0.75333059 1.2782338e-38
0.62282175 -0.26575267 0.75709796 1.2782338e-38
0.64775336 -0.2645373 0.75920951 1.2782338e-38
0.65519851 -0.26510307 0.75741327 1.2782338e-38
0.66307533 -0.26489252 0.75385207 1.2782338e-38
0.60851425 -0.25265354 0.75219393 1.2782338e-38
0.61470598 -0.25579539 0.75576437 1.2782338e-38
0.6239602 -0.25567889 0.75935221 1.2782338e-38
0.63547593 -0.25259411 0.7594471 1.2782338e-38
0.64480835 -0.25469667 0.75821203 1.2782338e-38
0.65486205 -0.25495648 0.75557202 1.2782338e-38
0.66348398 -0.25653332 0.75117171 1.2782338e-38
0.59882677 -0.24086629 0.75134778 1.2782338e-38
0.6056338 -0.24495715 0.75567609 1.2782338e-38
0.61433589 -0.24589729 0.75928748 1.2782338e-38
0.62557465 -0.24456991 0.75923735 1.2782338e-38
0.63526195 -0.24542803 0.7576623 1.2782338e-38
0.64488757 -0.24475126 0.75588012 1.2782338e-38
0.65348572 -0.24586806 0.75314045 1.2782338e-38
0.59608293 -0.23400426 0.75519526 1.2782338e-38
0.60268617 -0.23640576 0.75879097 1.2782338e-38
0.61553323 -0.23425084 0.75910777 1.2782338e-38
0.62484235 -0.23507366 0.7578969 1.2782338e-38
0.63485956 -0.23536852 0.75593454 1.2782338e-38
0.64390367 -0.23566416 0.75393414 1.2782338e-38
0.6514678 -0.23770978 0.7503503 1.2782338e-38
0.58759713 -0.22344404 0.75391483 1.2782338e-38
0.59340155 -0.22561182 0.75823647 1.2782338e-38
0.60636866 -0.2253639 0.75940049 1.2782338e-38
0.61530143 -0.22504003 0.75777495 1.2782338e-38
0.62477702 -0.22489852 0.75598127 1.2782338e-38
0.63469613 -0.22541085 0.75363851 1.2782338e-38
0.64159536 -0.22619629 0.75103974 1.2782338e-38
0.55588222 -0.21081509 0.75473291 1.2782338e-38
0.57939565 -0.21169853 0.75227433 1.2782338e-38
0.58489865 -0.21533434 0.75652331 1.2782338e-38
0.59172946 -0.21794042 0.75974238 1.2782338e-38
0.60496485 -0.21459493 0.75879079 1.2782338e-38
0.61503196 -0.21526229 0.75633705 1.2782338e-38
0.62467122 -0.21523865 0.75409114 1.2782338e-38
0.63205683 -0.21653987 0.75154704 1.2782338e-38
0.56954074 -0.20058656 0.75022179 1.2782338e-38
0.57565922 -0.20425011 0.75515389 1.2782338e-38
0.58421129 -0.20648523 0.75905728 1.2782338e-38
0.59703618 -0.20380481 0.7587164 1.2782338e-38
0.60507661 -0.20549384 0.75761306 1.2782338e-38
0.61522156 -0.20482075 0.75483721 1.2782338e-38
0.62389922 -0.20633107 0.75245726 1.2782338e-38
0.56692547 -0.19409332 0.75463045 1.2782338e-38
0.57244462 -0.19715106 0.75809228 1.2782338e-38
0.59618998 -0.19447842 0.75890762 1.2782338e-38
0.60519719 -0.19485046 0.75647348 1.2782338e-38
0.61429983 -0.19575597 0.75368184 1.2782338e-38
0.62114429 -0.19636264 0.75020587 1.2782338e-38
0.5582698 -0.18289949 0.75341713 1.2782338e-38
0.56254429 -0.18655679 0.75641942 1.2782338e-38
0.57148123 -0.18594658 0.75112104 1.2782338e-38
0.58747482 -0.18384925 0.75960928 1.2782338e-38
0.59476751 -0.18454409 0.75798815 1.2782338e-38
0.60432571 -0.18562968 0.75509703 1.2782338e-38
0.6121484 -0.18723106 0.75161946 1.2782338e-38
0.54947662 -0.17199403 0.75053751 1.2782338e-38
0.55474561 -0.17514223 0.75542295 1.2782338e-38
0.57782191 -0.17241772 0.75949764 1.2782338e-38
0.58517712 -0.17488985 0.75841194 1.2782338e-38
0.59475821 -0.1751875 0.75619471 1.2782338e-38
0.60351449 -0.17636983 0.75233191 1.2782338e-38
0.5476293 -0.16434515 0.75340289 1.2782338e-38
0.55312407 -0.16409171 0.75812984 1.2782338e-38
0.56571424 -0.16276848 0.7592631 1.2782338e-38
0.57498503 -0.16462842 0.75822181 1.2782338e-38
0.58467156 -0.16507225 0.7564528 1.2782338e-38
0.59395397 -0.16595501 0.75352859 1.2782338e-38
0.54852521 -0.15586875 0.75194329 1.2782338e-38
0.55444336 -0.15468387 0.75609553 1.2782338e-38
0.56494707 -0.1552299 0.75749183 1.2782338e-38
0.57517105 -0.15478817 0.75520551 1.2782338e-38
0.584387 -0.15610102 0.7535097 1.2782338e-38
0.59278166 -0.15992983 0.75180566 1.2782338e-38
0.55625832 -0.14808069 0.7545439 1.2782338e-38
0.56493634 -0.14716993 0.75532568 1.2782338e-38
0.57392424 -0.14723565 0.75250703 1.2782338e-38
0.55032569 -0.13342175 0.7586863 1.2782338e-38
0.6599142 -0.28472388 0.76029724 1.2782338e-38
0.66208816 -0.28653294 0.76046956 1.2782338e-38
0.63505423 -0.27194363 0.76031876 1.2782338e-38
0.64260954 -0.27157086 0.76024282 1.2782338e-38
0.62741965 -0.26382139 0.76064599 1.2782338e-38
0.63491434 -0.26510039 0.76104677 1.2782338e-38
0.64238298 -0.26543763 0.76036417 1.2782338e-38
0.66096646 -0.26403627 0.76371861 1.2782338e-38
0.61792976 -0.25181961 0.76055825 1.2782338e-38
0.62482512 -0.25531265 0.76096576 1.2782338e-38
0.63408363 -0.25703236 0.76051605 1.2782338e-38
0.61481667 -0.24517944 0.76039523 1.2782338e-38
0.6213361 -0.24905841 0.76021719 1.2782338e-38
0.60697258 -0.23406607 0.76036316 1.2782338e-38
0.61132401 -0.23761131 0.76040953 1.2782338e-38
0.5983783 -0.22313058 0.76023185 1.2782338e-38
0.60313374 -0.22572677 0.76035666 1.2782338e-38
0.58939207 -0.21034838 0.76000845 1.2782338e-38
0.59586674 -0.21497446 0.76033604 1.2782338e-38
0.63121986 -0.21816252 0.76485884 1.2782338e-38
0.57888722 -0.20059665 0.76019895 1.2782338e-38
0.58700246 -0.20308156 0.76016217 1.2782338e-38
0.59339333 -0.20575185 0.76032716 1.2782338e-38
0.63045156 -0.20534116 0.76877743 1.2782338e-38
0.5755595 -0.19383793 0.76117396 1.2782338e-38
0.58504492 -0.19521512 0.76076829 1.2782338e-38
0.59152502 -0.19714808 0.7603367 1.2782338e-38
0.56645948 -0.18427865 0.7616365 1.2782338e-38
0.57478803 -0.18512201 0.76159251 1.2782338e-38
0.58320481 -0.1859016 0.76053923 1.2782338e-38
0.59747452 -0.18210554 0.76445645 1.2782338e-38
0.55833441 -0.17300881 0.76115358 1.2782338e-38
0.56489319 -0.17517942 0.76177752 1.2782338e-38
0.57423353 -0.17571659 0.7609477 1.2782338e-38
0.58078468 -0.17963172 0.76036692 1.2782338e-38
0.59733844 -0.17916182 0.76044983 1.2782338e-38
0.55684644 -0.16685759 0.76085681 1.2782338e-38
0.56416041 -0.16702881 0.76072162 1.2782338e-38
0.57064974 -0.16880199 0.76031846 1.2782338e-38
0.56795549 -0.14361444 0.76169837 1.2782338e-38
0.60535318 -0.25974935 0.77119339 1.2782338e-38
0.60914749 -0.20718932 0.77554458 1.2782338e-38
0.56000334 -0.17820159 0.77302843 1.2782338e-38
0.45455447 0.055230901 0.62723178 5.0129715e-39
0.4567644 0.065342605 0.62807518 5.0129715e-39
0.46429616 0.072038338 0.62641132 5.0129715e-39
0.47391018 0.07704407 0.62602115 5.0129715e-39
0.45804352 0.089878008 0.62331396 5.0129715e-39
0.47985864 0.080328517 0.62487566 5.0129715e-39
0.48476896 0.08335679 0.62552118 5.0129715e-39
0.4924511 0.088142015 0.62580264 5.0129715e-39
0.49810463 0.091461755 0.62572336 5.0129715e-39
0.50424337 0.095052928 0.62469262 5.0129715e-39
0.51199538 0.10441627 0.62634826 5.0129715e-39
0.54503429 0.11542102 0.62751937 5.0129715e-39
0.55250514 0.1185171 0.6267128 5.0129715e-39
0.45326811 0.049827397 0.63764918 5.0129715e-39
0.45399523 0.055596888 0.63442969 5.0129715e-39
0.4575507 0.064336345 0.63381904 5.0129715e-39
0.46142089 0.06958174 0.63481194 5.0129715e-39
0.46666566 0.072332516 0.6350891 5.0129715e-39
0.47519821 0.076990381 0.63508022 5.0129715e-39
0.48003989 0.079693072 0.63873291 5.0129715e-39
0.47983092 0.080059931 0.63062078 5.0129715e-39
0.48512951 0.083184563 0.63578278 5.0129715e-39
0.49265018 0.087936796 0.63591993 5.0129715e-39
0.49748725 0.091145493 0.63372719 5.0129715e-39
0.50445342 0.095398359 0.63523382 5.0129715e-39
0.51000684 0.098825917 0.63416779 5.0129715e-39
0.51553845 0.10279711 0.63499027 5.0129715e-39
0.52499712 0.10727598 0.63747191 5.0129715e-39
0.53101289 0.10988496 0.63371432 5.0129715e-39
0.51983821 0.11510918 0.63695836 5.0129715e-39
0.53656769 0.11236405 0.63494927 5.0129715e-39
0.54580921 0.11626237 0.63564545 5.0129715e-39
0.55252486 0.11925457 0.63909781 5.0129715e-39
0.44900727 0.054320756 0.6476649 5.0129715e-39
0.45432559 0.053787448 0.6442045 5.0129715e-39
0.46263328 0.051475625 0.64174622 5.0129715e-39
0.4463267 0.067543961 0.64755654 5.0129715e-39
0.45575127 0.063940957 0.64555013 5.0129715e-39
0.46213326 0.068823136 0.64496386 5.0129715e-39
0.46717417 0.07195808 0.64464486 5.0129715e-39
0.47462255 0.075943217 0.64510131 5.0129715e-39
0.48034915 0.07947243 0.6438089 5.0129715e-39
0.48574701 0.083044812 0.64557189 5.0129715e-39
0.4933908 0.088064179 0.64441282 5.0129715e-39
0.49836197 0.091285206 0.64349294 5.0129715e-39
0.50496674 0.095536381 0.64452082 5.0129715e-39
0.51164049 0.099736303 0.64689434 5.0129715e-39
0.51608449 0.1023147 0.64399701 5.0129715e-39
0.52452445 0.10700879 0.64583039 5.0129715e-39
0.53372705 0.111729 0.64492798 5.0129715e-39
0.54482633 0.11657759 0.6452052 5.0129715e-39
0.46222717 0.048068523 0.65900064 5.0129715e-39
0.44925919 0.05427739 0.65419388 5.0129715e-39
0.45229134 0.058030758 0.65559024 5.0129715e-39
0.45667067 0.063465983 0.65448481 5.0129715e-39
0.46217015 0.067842774 0.65535796 5.0129715e-39
0.46793815 0.071684882 0.6548959 5.0129715e-39
0.47554979 0.076533139 0.6546483 5.0129715e-39
0.48516306 0.082983606 0.65551782 5.0129715e-39
0.49298799 0.08806058 0.65440172 5.0129715e-39
0.49820352 0.091431111 0.6546604 5.0129715e-39
0.5056445 0.096283317 0.65538275 5.0129715e-39
0.51025635 0.099269666 0.65300941 5.0129715e-39
0.51552594 0.10222798 0.6558128 5.0129715e-39
0.5251134 0.10682372 0.65510136 5.0129715e-39
0.52174872 0.11153702 0.65483582 5.0129715e-39
0.53449929 0.11217775 0.65363371 5.0129715e-39
0.54236126 0.11611645 0.65444404 5.0129715e-39
0.45644632 0.049263701 0.66562825 5.0129715e-39
0.46306005 0.049515706 0.66174471 5.0129715e-39
0.44979984 0.05355221 0.66345048 5.0129715e-39
0.45131081 0.054793116 0.666399 5.0129715e-39
0.45694003 0.062860921 0.66509187 5.0129715e-39
0.46252728 0.067533165 0.66544819 5.0129715e-39
0.46694714 0.0709977 0.66539448 5.0129715e-39
0.47489151 0.07625588 0.66430861 5.0129715e-39
0.48255062 0.077379882 0.6644839 5.0129715e-39
0.48456904 0.082608275 0.66496283 5.0129715e-39
0.49251044 0.087860473 0.6655829 5.0129715e-39
0.51692408 0.089204773 0.66805112 5.0129715e-39
0.4974162 0.091021001 0.66390073 5.0129715e-39
0.50507295 0.095777676 0.66500396 5.0129715e-39
0.50278676 0.10366551 0.66503477 5.0129715e-39
0.51540852 0.10215674 0.66528243 5.0129715e-39
0.52475399 0.10736645 0.66428995 5.0129715e-39
0.53445005 0.11252213 0.66514701 5.0129715e-39
0.54376066 0.11748442 0.66447288 5.0129715e-39
0.46298647 0.049233925 0.67394662 5.0129715e-39
0.45188016 0.054787785 0.67552179 5.0129715e-39
0.45688558 0.06261795 0.67610693 5.0129715e-39
0.46277496 0.067911819 0.6752398 5.0129715e-39
0.47907463 0.068603069 0.67284667 5.0129715e-39
0.46777186 0.071509816 0.67440635 5.0129715e-39
0.47429505 0.075647227 0.67491287 5.0129715e-39
0.48026422 0.079572566 0.67371702 5.0129715e-39
0.48527324 0.082894236 0.67527014 5.0129715e-39
0.49276885 0.087007493 0.67513204 5.0129715e-39
0.49826413 0.091425315 0.67520553 5.0129715e-39
0.50447494 0.095463656 0.67495883 5.0129715e-39
0.51081336 0.099504523 0.67478049 5.0129715e-39
0.515935 0.10268168 0.67569536 5.0129715e-39
0.52421212 0.10736413 0.67520303 5.0129715e-39
0.52957475 0.1102251 0.67334092 5.0129715e-39
0.53547269 0.11346586 0.67536652 5.0129715e-39
0.54191285 0.11689492 0.6739319 5.0129715e-39
0.55155861 0.12085445 0.67729384 5.0129715e-39
0.45636171 0.048711549 0.6896019 5.0129715e-39
0.44992739 0.051630285 0.68147588 5.0129715e-39
0.45250335 0.054075789 0.68524766 5.0129715e-39
0.45761019 0.062063504 0.68477541 5.0129715e-39
0.4630315 0.067237429 0.68441695 5.0129715e-39
0.46860957 0.071777694 0.68400544 5.0129715e-39
0.47558573 0.076431647 0.68463671 5.0129715e-39
0.48555723 0.083043002 0.68475676 5.0129715e-39
0.49269637 0.087896295 0.68526846 5.0129715e-39
0.49750662 0.091086708 0.68512022 5.0129715e-39
0.50496262 0.095809191 0.68526167 5.0129715e-39
0.5100199 0.0989739 0.68240082 5.0129715e-39
0.51546782 0.10238425 0.685067 5.0129715e-39
0.52410924 0.10745192 0.68513024 5.0129715e-39
0.53449762 0.11314466 0.68574667 5.0129715e-39
0.54313463 0.11724795 0.68537813 5.0129715e-39
0.4545567 0.049256444 0.69500494 5.0129715e-39
0.44999796 0.05273262 0.69441634 5.0129715e-39
0.45187271 0.055170879 0.69572806 5.0129715e-39
0.45668921 0.062743388 0.69468737 5.0129715e-39
0.46217117 0.067801751 0.69506025 5.0129715e-39
0.46741638 0.071386546 0.69450444 5.0129715e-39
0.47460505 0.076133192 0.69502378 5.0129715e-39
0.48031968 0.079932503 0.69695365 5.0129715e-39
0.48492157 0.082882412 0.69446087 5.0129715e-39
0.49284491 0.088101387 0.6952914 5.0129715e-39
0.51802403 0.0898671 0.69708675 5.0129715e-39
0.49807355 0.091458298 0.6941759 5.0129715e-39
0.50468272 0.095744573 0.69498241 5.0129715e-39
0.51120549 0.099707864 0.69604594 5.0129715e-39
0.51603943 0.10265238 0.69474053 5.0129715e-39
0.52480298 0.1076771 0.69490331 5.0129715e-39
0.52960271 0.1103301 0.69379431 5.0129715e-39
0.53462815 0.11288514 0.69368237 5.0129715e-39
0.5411225 0.1145071 0.69119108 5.0129715e-39
0.45493549 0.047904201 0.70383346 5.0129715e-39
0.45383167 0.055478934 0.7035085 5.0129715e-39
0.45564413 0.06329897 0.70480168 5.0129715e-39
0.46217889 0.068108983 0.70547009 5.0129715e-39
0.45554057 0.07557027 0.70888996 5.0129715e-39
0.46761179 0.071699545 0.70437795 5.0129715e-39
0.47547781 0.07691063 0.70547813 5.0129715e-39
0.4854303 0.083420806 0.70486313 5.0129715e-39
0.49297705 0.088300131 0.7051689 5.0129715e-39
0.49793068 0.091471933 0.70480055 5.0129715e-39
0.50519609 0.095985383 0.70516473 5.0129715e-39
0.51029241 0.099164821 0.70356774 5.0129715e-39
0.51582718 0.10247939 0.7047646 5.0129715e-39
0.52480972 0.10748774 0.70516431 5.0129715e-39
0.53495044 0.11305748 0.70424628 5.0129715e-39
0.54329872 0.11735293 0.70707524 5.0129715e-39
0.45456958 0.048523508 0.71422493 5.0129715e-39
0.46040243 0.048310719 0.71140862 5.0129715e-39
0.45240906 0.05521515 0.71535569 5.0129715e-39
0.4558543 0.062909678 0.71473455 5.0129715e-39
0.46346822 0.068223149 0.71470827 5.0129715e-39
0.46813121 0.071274325 0.71483499 5.0129715e-39
0.47436684 0.075792849 0.71499497 5.0129715e-39
0.45985502 0.080956705 0.71646208 5.0129715e-39
0.4846257 0.083133459 0.71524799 5.0129715e-39
0.49261522 0.08824791 0.71504509 5.0129715e-39
0.49754524 0.091234386 0.7144658 5.0129715e-39
0.50541127 0.096005738 0.71480387 5.0129715e-39
0.51174217 0.099849835 0.71761483 5.0129715e-39
0.5152576 0.10197142 0.71428597 5.0129715e-39
0.5237875 0.10686575 0.71510667 5.0129715e-39
0.52951479 0.11014682 0.71739864 5.0129715e-39
0.53490663 0.11325743 0.71456712 5.0129715e-39
0.54297537 0.11740032 0.71602696 5.0129715e-39
0.45461437 0.048567288 0.72440076 5.0129715e-39
0.45273373 0.05496515 0.72512639 5.0129715e-39
0.45636544 0.062490884 0.72496206 5.0129715e-39
0.46275941 0.067770936 0.72516799 5.0129715e-39
0.46836346 0.071383424 0.72577786 5.0129715e-39
0.47478166 0.075932547 0.72482753 5.0129715e-39
0.4804129 0.079857305 0.72774923 5.0129715e-39
0.48540586 0.083461024 0.72478199 5.0129715e-39
0.49370176 0.088685334 0.72501808 5.0129715e-39
0.49827313 0.091549627 0.7264263 5.0129715e-39
0.50447983 0.095479161 0.72449702 5.0129715e-39
0.51074719 0.099301219 0.72497237 5.0129715e-39
0.51664078 0.10266219 0.72516501 5.0129715e-39
0.52548069 0.1076816 0.7247985 5.0129715e-39
0.53367186 0.10888021 0.72265524 5.0129715e-39
0.53507131 0.11305643 0.72477967 5.0129715e-39
0.5440588 0.11620981 0.72670907 5.0129715e-39
0.46802267 0.034836762 0.73244774 5.0129715e-39
0.45473692 0.048428245 0.73370939 5.0129715e-39
0.46286234 0.047353618 0.73288178 5.0129715e-39
0.47014636 0.041207273 0.73646998 5.0129715e-39
0.45339924 0.05457617 0.73566681 5.0129715e-39
0.45775369 0.062728904 0.73551184 5.0129715e-39
0.46303335 0.067862801 0.73469085 5.0129715e-39
0.48150989 0.065375313 0.7350083 5.0129715e-39
0.46804106 0.07113485 0.73442686 5.0129715e-39
0.47506395 0.075869858 0.73531789 5.0129715e-39
0.48036769 0.07955078 0.73380297 5.0129715e-39
0.48537958 0.083188072 0.73458451 5.0129715e-39
0.49248949 0.08803945 0.73504019 5.0129715e-39
0.49752045 0.091211118 0.73539305 5.0129715e-39
0.50530231 0.095996238 0.73488969 5.0129715e-39
0.51180911 0.099916488 0.73902994 5.0129715e-39
0.51550603 0.10196502 0.7342605 5.0129715e-39
0.52411222 0.10682173 0.73506099 5.0129715e-39
0.5323649 0.11139178 0.7341091 5.0129715e-39
0.45567489 0.048768573 0.74620777 5.0129715e-39
0.45537966 0.054597806 0.74380249 5.0129715e-39
0.45842114 0.063252866 0.74461263 5.0129715e-39
0.46404555 0.06827452 0.74526906 5.0129715e-39
0.46821931 0.071402289 0.74366003 5.0129715e-39
0.47498643 0.075812578 0.74536252 5.0129715e-39
0.50037569 0.078165866 0.7431823 5.0129715e-39
0.4845089 0.082860671 0.74520606 5.0129715e-39
0.49264756 0.08805082 0.74540955 5.0129715e-39
0.49783054 0.091171868 0.74437433 5.0129715e-39
0.5051046 0.095528588 0.74497497 5.0129715e-39
0.51154137 0.099487819 0.74520284 5.0129715e-39
0.50604087 0.10486098 0.74188507 5.0129715e-39
0.51666987 0.10265307 0.74490964 5.0129715e-39
0.5256418 0.10785818 0.744829 5.0129715e-39
0.5343734 0.11276545 0.7456435 5.0129715e-39
0.54319811 0.11752636 0.74824309 5.0129715e-39
0.4539845 0.049118735 0.7579267 5.0129715e-39
0.4524979 0.054469682 0.75602287 5.0129715e-39
0.47203416 0.051708259 0.75056225 5.0129715e-39
0.45727205 0.063061744 0.7548843 5.0129715e-39
0.46378443 0.067877583 0.75505829 5.0129715e-39
0.45194536 0.071227893 0.75531805 5.0129715e-39
0.46842349 0.070998155 0.75385976 5.0129715e-39
0.47480884 0.075475536 0.75516474 5.0129715e-39
0.4812474 0.079878531 0.75598764 5.0129715e-39
0.48527804 0.082690522 0.75474173 5.0129715e-39
0.49324942 0.087653421 0.75501215 5.0129715e-39
0.49835894 0.09079133 0.75523484 5.0129715e-39
0.50472564 0.094680943 0.75545013 5.0129715e-39
0.51147771 0.098866507 0.754498 5.0129715e-39
0.51684719 0.10213055 0.75462538 5.0129715e-39
0.52533644 0.10708487 0.75490957 5.0129715e-39
0.53436226 0.11283471 0.75553596 5.0129715e-39
0.54327089 0.1179803 0.75466686 5.0129715e-39
0.45584929 0.047405265 0.7643925 5.0129715e-39
0.46112612 0.046158161 0.76658696 5.0129715e-39
0.45247611 0.054942604 0.76556277 5.0129715e-39
0.45668358 0.062524095 0.76505303 5.0129715e-39
0.46347699 0.067546509 0.76524323 5.0129715e-39
0.46852005 0.070992731 0.76572049 5.0129715e-39
0.47525597 0.075424924 0.76536709 5.0129715e-39
0.48135203 0.079423487 0.76494086 5.0129715e-39
0.48627624 0.082569554 0.76508999 5.0129715e-39
0.4933297 0.087074794 0.76512343 5.0129715e-39
0.48550066 0.091427125 0.76272458 5.0129715e-39
0.49833521 0.090242013 0.76434159 5.0129715e-39
0.50463086 0.094237119 0.76503867 5.0129715e-39
0.51221317 0.098941348 0.76490217 5.0129715e-39
0.51747608 0.10216586 0.76515484 5.0129715e-39
0.52567232 0.10722528 0.76529586 5.0129715e-39
0.53496504 0.11337926 0.76521361 5.0129715e-39
0.5419628 0.11718206 0.76499826 5.0129715e-39
0.45363906 0.048570517 0.77520686 5.0129715e-39
0.45457157 0.054568831 0.77485067 5.0129715e-39
0.45740265 0.061966557 0.77478927 5.0129715e-39
0.46417937 0.066685498 0.77597183 5.0129715e-39
0.46865392 0.070124239 0.77395558 5.0129715e-39
0.47514832 0.074430592 0.77477777 5.0129715e-39
0.48169246 0.078947052 0.77456266 5.0129715e-39
0.47134581 0.082035638 0.77356333 5.0129715e-39
0.48596284 0.081805855 0.77510417 5.0129715e-39
0.49408099 0.087137848 0.77479911 5.0129715e-39
0.49975613 0.090896532 0.77812451 5.0129715e-39
0.50496167 0.094241083 0.77498519 5.0129715e-39
0.51182324 0.098519713 0.77428275 5.0129715e-39
0.51651877 0.10139636 0.77520639 5.0129715e-39
0.52487904 0.10631667 0.7751255 5.0129715e-39
0.53550452 0.11234692 0.774661 5.0129715e-39
0.54274964 0.11653963 0.77480918 5.0129715e-39
0.44453013 0.047774371 0.78606004 5.0129715e-39
0.45665586 0.048035853 0.78356701 5.0129715e-39
0.46211594 0.048218053 0.78684866 5.0129715e-39
0.4557755 0.055746607 0.78516489 5.0129715e-39
0.46923226 0.052216478 0.78752106 5.0129715e-39
0.45947635 0.061381951 0.78073847 5.0129715e-39
0.4641698 0.065335982 0.78480852 5.0129715e-39
0.46977007 0.070855096 0.78895462 5.0129715e-39
0.47467208 0.074113227 0.78511494 5.0129715e-39
0.48190573 0.078982003 0.78542393 5.0129715e-39
0.48716751 0.082464419 0.78512806 5.0129715e-39
0.49439502 0.087285861 0.78478009 5.0129715e-39
0.49918538 0.090413973 0.7853719 5.0129715e-39
0.50544798 0.094310835 0.78532374 5.0129715e-39
0.51277733 0.097931087 0.78532022 5.0129715e-39
0.51760209 0.10184494 0.7851038 5.0129715e-39
0.52473408 0.10616581 0.78519511 5.0129715e-39
0.53075564 0.10964212 0.78461063 5.0129715e-39
0.55038351 0.10351514 0.78391117 5.0129715e-39
0.52844143 0.1120522 0.78711224 5.0129715e-39
0.53516036 0.11214385 0.78468609 5.0129715e-39
0.54179031 0.11578576 0.78390121 5.0129715e-39
0.45755395 0.048462261 0.79704839 5.0129715e-39
0.46174863 0.047058277 0.79617959 5.0129715e-39
0.44584832 0.057365745 0.79744273 5.0129715e-39
0.45543703 0.054999173 0.79452401 5.0129715e-39
0.45994765 0.060984779 0.79209983 5.0129715e-39
0.46430531 0.065358154 0.79498792 5.0129715e-39
0.46974057 0.070608348 0.79437363 5.0129715e-39
0.47491029 0.073989138 0.79566348 5.0129715e-39
0.4812994 0.078471385 0.79501641 5.0129715e-39
0.4868975 0.082237162 0.79515523 5.0129715e-39
0.49483785 0.087314464 0.79513049 5.0129715e-39
0.49912047 0.09007334 0.79085076 5.0129715e-39
0.50459236 0.093595989 0.79547763 5.0129715e-39
0.51202923 0.098325275 0.7946353 5.0129715e-39
0.51701397 0.10144046 0.79518014 5.0129715e-39
0.52490622 0.10626202 0.79510069 5.0129715e-39
0.50158685 0.1115843 0.79771996 5.0129715e-39
0.53516781 0.11205163 0.79334372 5.0129715e-39
0.54378539 0.11580389 0.79295701 5.0129715e-39
0.55476469 0.1176654 0.79949594 5.0129715e-39
0.456559 0.048899315 0.80572629 5.0129715e-39
0.46110487 0.046611458 0.80514127 5.0129715e-39
0.45640662 0.054589003 0.8053115 5.0129715e-39
0.48032665 0.059263214 0.80644882 5.0129715e-39
0.45862272 0.061141223 0.80675077 5.0129715e-39
0.46488678 0.065303832 0.80684251 5.0129715e-39
0.4704417 0.068650857 0.80933857 5.0129715e-39
0.48640266 0.064929843 0.80868316 5.0129715e-39
0.49314624 0.068177536 0.80779332 5.0129715e-39
0.47493041 0.072697572 0.80560589 5.0129715e-39
0.4827908 0.077218413 0.80676526 5.0129715e-39
0.49307495 0.071046144 0.80975014 5.0129715e-39
0.50482678 0.074407838 0.80835474 5.0129715e-39
0.5115748 0.078887522 0.80779564 5.0129715e-39
0.48694658 0.081269957 0.80514002 5.0129715e-39
0.4946028 0.08556848 0.80636388 5.0129715e-39
0.50194925 0.088697612 0.80894184 5.0129715e-39
0.51654899 0.084127069 0.80833524 5.0129715e-39
0.52421248 0.087809414 0.80740827 5.0129715e-39
0.50540143 0.092861123 0.80591542 5.0129715e-39
0.51352102 0.097508803 0.80665213 5.0129715e-39
0.52489054 0.091507107 0.8092885 5.0129715e-39
0.53484964 0.095880486 0.80744237 5.0129715e-39
0.54127866 0.098227181 0.80676329 5.0129715e-39
0.51750445 0.10138512 0.80334222 5.0129715e-39
0.5253098 0.1045174 0.80494779 5.0129715e-39
0.53405565 0.10758583 0.80631697 5.0129715e-39
0.54474539 0.10272221 0.8088299 5.0129715e-39
0.5510987 0.10655318 0.8096832 5.0129715e-39
0.53740859 0.11223006 0.80405027 5.0129715e-39
0.5425992 0.11443385 0.80636448 5.0129715e-39
0.55163229 0.11427552 0.80703247 5.0129715e-39
0.45934841 0.049443468 0.8115871 5.0129715e-39
0.46195924 0.049323946 0.8106817 5.0129715e-39
0.45895401 0.054623786 0.81230617 5.0129715e-39
0.46418485 0.056102481 0.81335652 5.0129715e-39
0.47126022 0.058451232 0.81385207 5.0129715e-39
0.46642083 0.062131755 0.81100351 5.0129715e-39
0.47422078 0.065060772 0.81271863 5.0129715e-39
0.48274037 0.066656403 0.81222409 5.0129715e-39
0.47751549 0.071171507 0.81152147 5.0129715e-39
0.48524499 0.074431337 0.81220496 5.0129715e-39
0.49480873 0.075849213 0.8133446 5.0129715e-39
0.50322026 0.077540785 0.8133226 5.0129715e-39
0.4888384 0.084148832 0.81870753 5.0129715e-39
0.49643984 0.082013503 0.81264538 5.0129715e-39
0.50469953 0.085610874 0.81355762 5.0129715e-39
0.51281661 0.087317765 0.81229389 5.0129715e-39
0.50875843 0.091173083 0.81104106 5.0129715e-39
0.51520938 0.094208144 0.81230122 5.0129715e-39
0.52416933 0.096671268 0.81160539 5.0129715e-39
0.5316987 0.098646231 0.81103557 5.0129715e-39
0.5266279 0.10180379 0.8129105 5.0129715e-39
0.53535962 0.10528055 0.81226766 5.0129715e-39
0.54415232 0.10710052 0.81164527 5.0129715e-39
0.55151242 0.10841066 0.81062365 5.0129715e-39
0.54519624 0.11178412 0.81185782 5.0129715e-39
0.70781875 -0.076359518 0.62919486 1.0262559e-38
0.70667624 -0.063422404 0.6252352 1.0262559e-38
0.71013868 -0.068182647 0.62694752 1.0262559e-38
0.69803703 -0.053474039 0.62608308 1.0262559e-38
0.70184124 -0.057227794 0.62426454 1.0262559e-38
0.69330782 -0.045347836 0.62558025 1.0262559e-38
0.70244992 -0.046538174 0.62842286 1.0262559e-38
0.66156119 -0.03365162 0.62313539 1.0262559e-38
0.68646032 -0.035081536 0.62497979 1.0262559e-38
0.67804211 -0.02255057 0.62562674 1.0262559e-38
0.6815291 -0.027711587 0.62608385 1.0262559e-38
0.6699993 -0.011418665 0.62661183 1.0262559e-38
