# .PCD v0.7 - Point Cloud Data file format
VERSION 0.7
FIELDS x y z rgb
SIZE 4 4 4 4
TYPE F F F F
COUNT 1 1 1 1
WIDTH 1005
HEIGHT 1
VIEWPOINT 0 0 0 1 0 0 0
POINTS 1005
DATA ascii
0.63512182 -0.35482407 0.61000061 1.097128e-38
0.64433509 -0.35515931 0.61000067 1.097128e-38
0.65477741 -0.35503983 0.61000067 1.097128e-38
0.66525292 -0.3548831 0.61000067 1.097128e-38
0.67473143 -0.35498399 0.61000067 1.097128e-38
0.68450499 -0.35486922 0.61000079 1.097128e-38
0.69418877 -0.35519883 0.61000091 1.097128e-38
0.70407426 -0.35485694 0.61000097 1.097128e-38
0.71420985 -0.35494885 0.61000127 1.097128e-38
0.72449917 -0.35506365 0.61000127 1.097128e-38
0.73458529 -0.35539153 0.61000127 1.097128e-38
0.74474168 -0.35704288 0.61000139 1.097128e-38
0.75474197 -0.35917756 0.61000139 1.097128e-38
0.82492054 -0.35487959 0.61000198 1.1063476e-38
0.83382457 -0.3550317 0.61000198 1.1063476e-38
0.84465897 -0.35480306 0.61026663 1.1063476e-38
0.85522932 -0.35505104 0.61000216 1.1063476e-38
0.86471283 -0.35486391 0.6100021 1.1063476e-38
0.36548325 -0.34392723 0.61675268 0
0.55777138 -0.34187275 0.61000001 1.097128e-38
0.56592482 -0.3443957 0.61000019 1.097128e-38
0.57570487 -0.34483737 0.61000043 1.097128e-38
0.585069 -0.34521195 0.61000037 1.097128e-38
0.5945769 -0.34490168 0.61000049 1.097128e-38
0.60538101 -0.34497336 0.61000055 1.097128e-38
0.61515629 -0.34523332 0.61000055 1.097128e-38
0.62514609 -0.345218 0.61000055 1.097128e-38
0.63517058 -0.34481233 0.61000061 1.097128e-38
0.64423537 -0.34484273 0.61000061 1.097128e-38
0.65460771 -0.34510943 0.61000067 1.097128e-38
0.66525358 -0.34486923 0.61000067 1.097128e-38
0.67484033 -0.34490895 0.61000073 1.097128e-38
0.68438923 -0.34516725 0.61000079 1.097128e-38
0.69424832 -0.34521011 0.61000085 1.097128e-38
0.70412821 -0.34477621 0.61000097 1.097128e-38
0.71356523 -0.34547389 0.61000121 1.097128e-38
0.72394615 -0.34813693 0.61000115 1.097128e-38
0.73096073 -0.34913993 0.61000121 1.097128e-38
0.82496494 -0.34504348 0.61006951 1.1063476e-38
0.83403802 -0.34514987 0.61000192 1.1063476e-38
0.84448534 -0.34482658 0.61000198 1.1063476e-38
0.8552295 -0.34502858 0.61000204 1.1063476e-38
0.86449146 -0.34512514 0.6100021 1.1063476e-38
0.35097945 -0.33755112 0.61155546 0
0.39999166 -0.33765468 0.61430603 8.1805604e-39
0.54774135 -0.33359495 0.61000007 1.097128e-38
0.56545621 -0.33497548 0.61000019 1.097128e-38
0.57577854 -0.33496478 0.61000043 1.097128e-38
0.58511484 -0.33514565 0.61000037 1.097128e-38
0.59465253 -0.33505598 0.61000049 1.097128e-38
0.60522646 -0.33523139 0.61000055 1.097128e-38
0.61506081 -0.335141 0.61000055 1.097128e-38
0.62498677 -0.33532882 0.61000055 1.097128e-38
0.63517135 -0.33501875 0.61000061 1.097128e-38
0.64433944 -0.33499017 0.61000067 1.097128e-38
0.65477741 -0.33516559 0.61000067 1.097128e-38
0.66530937 -0.33508667 0.61000067 1.097128e-38
0.67473137 -0.3348175 0.61000079 1.097128e-38
0.68427372 -0.33546776 0.61000079 1.097128e-38
0.69397163 -0.33686844 0.61072278 1.097128e-38
0.70343804 -0.33864361 0.61000109 1.097128e-38
0.81841224 -0.33447543 0.61000186 1.097128e-38
0.82513148 -0.3348873 0.61000186 1.097128e-38
0.83403796 -0.33492285 0.61000192 1.097128e-38
0.84456462 -0.33479255 0.61000216 1.097128e-38
0.85522932 -0.33500609 0.61000216 1.097128e-38
0.86449116 -0.33504301 0.61000216 1.097128e-38
0.56545597 -0.3250173 0.61000025 1.097128e-38
0.57570499 -0.32509965 0.61000037 1.097128e-38
0.585069 -0.32507274 0.61000037 1.097128e-38
0.59457672 -0.32504514 0.61000049 1.097128e-38
0.60530382 -0.32513079 0.61000055 1.097128e-38
0.61496502 -0.32505086 0.61000055 1.097128e-38
0.6250667 -0.32525223 0.61000055 1.097128e-38
0.63517052 -0.32522517 0.61000061 1.097128e-38
0.64423537 -0.32512286 0.61000061 1.097128e-38
0.65460765 -0.32523766 0.61000067 1.097128e-38
0.6644879 -0.32614788 0.61000067 1.097128e-38
0.67426866 -0.32791427 0.61000091 1.097128e-38
0.68201441 -0.32909366 0.61000091 1.097128e-38
0.81677651 -0.32437974 0.61000168 1.097128e-38
0.82534218 -0.32505733 0.61000198 1.097128e-38
0.83425128 -0.32503554 0.61000198 1.097128e-38
0.8445639 -0.32501033 0.6100021 1.097128e-38
0.85500997 -0.32498485 0.61000204 1.097128e-38
0.86426938 -0.32496217 0.6100021 1.097128e-38
0.40467095 -0.31926477 0.61705846 6.2448278e-39
0.56545597 -0.3148903 0.61000019 1.097128e-38
0.57570493 -0.3148908 0.61000037 1.097128e-38
0.58502364 -0.31500086 0.61000037 1.097128e-38
0.59464961 -0.31493247 0.61010367 1.0694696e-38
0.60530418 -0.3148596 0.61000055 1.097128e-38
0.61525148 -0.31498286 0.61000055 1.097128e-38
0.62514603 -0.31517389 0.61000055 1.097128e-38
0.63522017 -0.31521159 0.61000061 1.097128e-38
0.64405531 -0.31543326 0.61000067 1.097128e-38
0.65422684 -0.31825238 0.61000067 1.097128e-38
0.8076213 -0.31069374 0.61000174 1.097128e-38
0.81547278 -0.3146818 0.61000168 1.097128e-38
0.82528991 -0.31538218 0.61009973 1.097128e-38
0.83403796 -0.31514931 0.61000192 1.097128e-38
0.84456462 -0.31522807 0.61000216 1.097128e-38
0.8552292 -0.31496248 0.6100021 1.097128e-38
0.86449122 -0.31488031 0.61000216 1.097128e-38
0.35953432 -0.30122691 0.61255383 7.9288242e-39
0.39287958 -0.30003548 0.61283815 6.1529923e-39
0.40267754 -0.30220461 0.61866188 6.2448278e-39
0.55537015 -0.30517766 0.61000001 1.097128e-38
0.56545585 -0.30476329 0.61000019 1.097128e-38
0.57563108 -0.3050279 0.61000043 1.097128e-38
0.585069 -0.3049342 0.61000037 1.097128e-38
0.59457672 -0.30501711 0.61000049 1.097128e-38
0.60538095 -0.30493069 0.61000055 1.097128e-38
0.61515635 -0.30489129 0.61000055 1.097128e-38
0.62498701 -0.30528823 0.61000055 1.097128e-38
0.6351586 -0.30537197 0.61083138 1.0418468e-38
0.64084792 -0.30881807 0.61000067 1.097128e-38
0.65836197 -0.30451524 0.61635196 1.097128e-38
0.80589503 -0.30368805 0.61000168 1.097128e-38
0.81487352 -0.30522016 0.61000168 1.097128e-38
0.82513148 -0.30506068 0.61000186 1.097128e-38
0.83403802 -0.30492225 0.61000192 1.097128e-38
0.84464455 -0.30519143 0.6100021 1.097128e-38
0.85544837 -0.30493599 0.6100021 1.097128e-38
0.86471301 -0.30479416 0.6100021 1.097128e-38
0.38900846 -0.29067114 0.61912262 6.3373835e-39
0.4010101 -0.29726806 0.6189186 6.2448278e-39
0.52785915 -0.29243076 0.61848223 1.097128e-38
0.54754394 -0.29587582 0.61000001 1.097128e-38
0.565386 -0.29479942 0.61000019 1.097128e-38
0.57570493 -0.29515418 0.61000037 1.097128e-38
0.58493221 -0.29485959 0.61000037 1.097128e-38
0.59457678 -0.29483011 0.61000043 1.097128e-38
0.60522652 -0.29519343 0.61000055 1.097128e-38
0.61506087 -0.29480189 0.61000055 1.097128e-38
0.62475711 -0.29515189 0.61048466 1.0602859e-38
0.63253194 -0.29818073 0.61000061 1.097128e-38
0.7865361 -0.2953718 0.61148822 1.097128e-38
0.79743779 -0.293587 0.61000162 1.097128e-38
0.80474651 -0.29501089 0.61000168 1.097128e-38
0.81487358 -0.29512072 0.61000168 1.097128e-38
0.82513148 -0.29489291 0.61000192 1.097128e-38
0.83403826 -0.29503611 0.61000198 1.097128e-38
0.84456462 -0.29514822 0.61000216 1.097128e-38
0.85522932 -0.29491621 0.6100021 1.097128e-38
0.86449158 -0.29506239 0.6100021 1.097128e-38
0.40506834 -0.28906539 0.61435187 1.0879084e-38
0.54741228 -0.28559649 0.61000001 1.097128e-38
0.56559604 -0.28501466 0.61000013 1.097128e-38
0.57570493 -0.28494531 0.61000037 1.097128e-38
0.58520561 -0.28501478 0.61000037 1.097128e-38
0.59450352 -0.28481066 0.61000049 1.097128e-38
0.60530394 -0.28509045 0.61000055 1.097128e-38
0.61510807 -0.28493816 0.61000055 1.097128e-38
0.62234271 -0.28731143 0.61000055 1.097128e-38
0.78769755 -0.28249937 0.61000162 1.097128e-38
0.79498273 -0.28472137 0.61000162 1.097128e-38
0.80474621 -0.28531325 0.61000168 1.097128e-38
0.8148737 -0.28502125 0.61000168 1.097128e-38
0.82513177 -0.28506407 0.61000192 1.097128e-38
0.83403814 -0.28515005 0.61000192 1.097128e-38
0.84448534 -0.28510657 0.6100021 1.097128e-38
0.85522956 -0.28489366 0.61000204 1.097128e-38
0.86449128 -0.28498033 0.61000216 1.097128e-38
0.41917735 -0.27932507 0.61998022 8.5637567e-39
0.42279515 -0.27753553 0.61916703 9.0290551e-39
0.54741216 -0.27547908 0.61000001 1.097128e-38
0.56545585 -0.27505684 0.61000025 1.097128e-38
0.57570517 -0.27490655 0.61000043 1.097128e-38
0.58511478 -0.27515543 0.61000037 1.097128e-38
0.59457624 -0.27497473 0.61000049 1.097128e-38
0.60521191 -0.27466547 0.61016423 1.0879084e-38
0.61312336 -0.27683941 0.6116007 9.9574924e-39
0.77931887 -0.27191061 0.6100015 1.097128e-38
0.78529692 -0.27451104 0.61000156 1.097128e-38
0.79475915 -0.27497157 0.61000162 1.097128e-38
0.80474627 -0.27528128 0.61000168 1.097128e-38
0.8148737 -0.2749218 0.61000168 1.097128e-38
0.82513154 -0.2752353 0.61000186 1.097128e-38
0.83403796 -0.27492303 0.61000192 1.097128e-38
0.84456474 -0.27506942 0.61000192 1.097128e-38
0.85500985 -0.2752251 0.61000204 1.097128e-38
0.86426938 -0.27490661 0.6100021 1.097128e-38
0.54767549 -0.26462331 0.61000001 1.097128e-38
0.5653156 -0.26510227 0.61000013 1.097128e-38
0.57570493 -0.26486781 0.61000043 1.097128e-38
0.585069 -0.26508462 0.61000037 1.097128e-38
0.59465027 -0.26513714 0.61000049 1.097128e-38
0.60354424 -0.26609543 0.61103404 1.0234076e-38
0.77636677 -0.26404202 0.6100015 1.097128e-38
0.78489769 -0.2647661 0.61000156 1.097128e-38
0.79475927 -0.26500607 0.61000162 1.097128e-38
0.80474609 -0.26524922 0.61000168 1.097128e-38
0.81487358 -0.26482236 0.61000168 1.097128e-38
0.82513148 -0.26506758 0.61000186 1.097128e-38
0.83382457 -0.26504645 0.61000198 1.097128e-38
0.8443253 -0.26502684 0.61000192 1.097128e-38
0.85522932 -0.26519573 0.6100021 1.097128e-38
0.86449122 -0.2648176 0.61000216 1.097128e-38
0.46373037 -0.25303486 0.61804861 1.0879084e-38
0.48177165 -0.25885555 0.61400014 1.0879084e-38
0.54780698 -0.2545571 0.61000001 1.0879084e-38
0.56545609 -0.25514141 0.61000019 1.097128e-38
0.57563382 -0.25482565 0.61000043 1.097128e-38
0.5850237 -0.25501487 0.61000037 1.097128e-38
0.59401846 -0.25566447 0.61084163 1.0510305e-38
0.60098469 -0.25995946 0.61000037 1.097128e-38
0.76677662 -0.25366884 0.6100015 1.097128e-38
0.77517116 -0.25485843 0.6100015 1.097128e-38
0.78489769 -0.25486621 0.61000156 1.097128e-38
0.79475927 -0.2550405 0.61000162 1.097128e-38
0.80474609 -0.25521722 0.61000168 1.097128e-38
0.81479722 -0.25497493 0.61000168 1.097128e-38
0.8251316 -0.25489986 0.61000186 1.097128e-38
0.83403832 -0.25515217 0.61000192 1.097128e-38
0.84456462 -0.25499162 0.61000192 1.097128e-38
0.85522926 -0.25482765 0.61000198 1.097128e-38
0.86471313 -0.25472435 0.6100021 1.097128e-38
0.54817158 -0.24443576 0.61000007 1.0879084e-38
0.56545603 -0.24501441 0.61000025 1.0879084e-38
0.57570493 -0.24479093 0.61000037 1.097128e-38
0.58516252 -0.24518949 0.61106646 1.0418108e-38
0.59154445 -0.24689259 0.61163568 9.9571378e-39
0.75742948 -0.24230416 0.61000139 1.097128e-38
0.76442087 -0.2447513 0.6100015 1.097128e-38
0.77517122 -0.2450233 0.6100015 1.097128e-38
0.78489769 -0.2449663 0.61000156 1.097128e-38
0.79475915 -0.24507491 0.61000162 1.097128e-38
0.80474603 -0.24518515 0.61000168 1.097128e-38
0.81487358 -0.2451289 0.61000168 1.097128e-38
0.82492065 -0.2450833 0.61000192 1.097128e-38
0.83403802 -0.24492513 0.61000192 1.097128e-38
0.84480333 -0.24495184 0.61000192 1.097128e-38
0.85544831 -0.24479271 0.61000204 1.097128e-38
0.86449152 -0.24499968 0.6100021 1.097128e-38
0.54839951 -0.23442964 0.61000007 1.0879084e-38
0.56552613 -0.23505852 0.61000007 1.0879084e-38
0.57590282 -0.23485459 0.61057526 1.0694693e-38
0.58281219 -0.23698933 0.61218697 9.9571294e-39
0.74938673 -0.23118441 0.61000133 1.097128e-38
0.75493377 -0.23478533 0.61000144 1.097128e-38
0.7640121 -0.23498939 0.6100015 1.097128e-38
0.77497417 -0.23494375 0.6100015 1.097128e-38
0.78489769 -0.2350664 0.61000156 1.097128e-38
0.79475915 -0.23510936 0.61000162 1.097128e-38
0.80474597 -0.23515314 0.61000168 1.097128e-38
0.81487358 -0.23502949 0.61000168 1.097128e-38
0.82513154 -0.23524357 0.61000186 1.097128e-38
0.83403814 -0.23469812 0.61000192 1.097128e-38
0.84456462 -0.2349108 0.61000192 1.097128e-38
0.8552295 -0.2351269 0.61000204 1.097128e-38
0.86426926 -0.23527923 0.6100021 1.097128e-38
0.34791431 -0.22352603 0.61301959 7.8366285e-39
0.37184697 -0.22857237 0.61530244 7.9288242e-39
0.51737887 -0.22302082 0.61764157 1.0879084e-38
0.54797632 -0.2245928 0.61000007 1.0879084e-38
0.56545597 -0.22509743 0.61000019 1.0879084e-38
0.57406366 -0.22617564 0.61097032 1.0234075e-38
0.74693394 -0.2237076 0.61000133 1.097128e-38
0.75474197 -0.22532894 0.61000144 1.097128e-38
0.76420635 -0.22498302 0.6100015 1.097128e-38
0.77517116 -0.22486258 0.61000156 1.097128e-38
0.78472292 -0.22484933 0.61000156 1.097128e-38
0.79475915 -0.22514383 0.61000162 1.097128e-38
0.80474597 -0.22512108 0.61000168 1.097128e-38
0.8148737 -0.22492997 0.61000168 1.097128e-38
0.8251316 -0.22507581 0.61000186 1.097128e-38
0.83425128 -0.22479691 0.61000198 1.097128e-38
0.84464467 -0.22487003 0.61000204 1.097128e-38
0.85522932 -0.22510448 0.61000198 1.097128e-38
0.86449128 -0.2251846 0.61000216 1.097128e-38
0.38020727 -0.21268451 0.61092544 0
0.54839951 -0.21444809 0.61000007 1.0879084e-38
0.57157886 -0.2196781 0.61000013 1.0879084e-38
0.73730278 -0.21278717 0.61000121 1.097128e-38
0.74534118 -0.21482937 0.61000139 1.097128e-38
0.75491005 -0.21529278 0.61000144 1.097128e-38
0.76440084 -0.21497262 0.6100015 1.097128e-38
0.77517116 -0.21502742 0.61000156 1.097128e-38
0.78489774 -0.21460779 0.61000156 1.097128e-38
0.79475921 -0.21517825 0.61000162 1.097128e-38
0.80474603 -0.21508905 0.61000168 1.097128e-38
0.81464338 -0.21508777 0.61000168 1.097128e-38
0.82513148 -0.21490811 0.61000186 1.097128e-38
0.83403802 -0.21492453 0.61000192 1.097128e-38
0.84448534 -0.21508995 0.6100021 1.097128e-38
0.85500991 -0.21509872 0.61000204 1.097128e-38
0.8644914 -0.21475486 0.61000216 1.097128e-38
0.5345152 -0.20773445 0.6175192 1.0879084e-38
0.54839951 -0.20445736 0.61000007 1.0879084e-38
0.55414182 -0.20564406 0.61079484 1.0233716e-38
0.56139582 -0.20933409 0.61000007 1.0879084e-38
0.72836655 -0.20180468 0.61000127 1.097128e-38
0.73508173 -0.20456794 0.61000127 1.097128e-38
0.74521548 -0.20471495 0.61000133 1.097128e-38
0.75474191 -0.20495953 0.61000144 1.097128e-38
0.76420647 -0.2049692 0.6100015 1.097128e-38
0.77517116 -0.20519228 0.61000156 1.097128e-38
0.78489763 -0.20470791 0.61000156 1.097128e-38
0.79469138 -0.20496546 0.61000162 1.097128e-38
0.80474633 -0.20505704 0.61000168 1.097128e-38
0.81487358 -0.20523755 0.61000168 1.097128e-38
0.8251316 -0.20474036 0.61000186 1.097128e-38
0.83382457 -0.2049787 0.61046302 1.097128e-38
0.84456462 -0.20504925 0.61000186 1.097128e-38
0.85522932 -0.2050609 0.61000198 1.097128e-38
0.86471307 -0.20465456 0.6100021 1.097128e-38
0.41046527 -0.19867241 0.61327219 1.0879084e-38
0.46075347 -0.19282104 0.61144328 1.0879084e-38
0.54778469 -0.19555098 0.61325097 6.9150366e-39
0.55137426 -0.19915414 0.61000001 1.0879084e-38
0.70418787 -0.19692796 0.61681592 1.0879084e-38
0.71706402 -0.19210044 0.61000109 1.097128e-38
0.72497326 -0.19487335 0.61000115 1.097128e-38
0.73506254 -0.19492353 0.61000127 1.097128e-38
0.7454046 -0.19483292 0.61000144 1.097128e-38
0.7545743 -0.19462974 0.61000144 1.097128e-38
0.7642709 -0.19496076 0.6100015 1.097128e-38
0.77536875 -0.19510438 0.6100015 1.097128e-38
0.78489769 -0.19480799 0.61000156 1.097128e-38
0.79475915 -0.19474933 0.61000162 1.097128e-38
0.80474609 -0.195025 0.61000162 1.097128e-38
0.81487358 -0.19513808 0.61000168 1.097128e-38
0.82513154 -0.19457264 0.61000186 1.097128e-38
0.8340379 -0.1951523 0.61000192 1.097128e-38
0.8443253 -0.1950175 0.61000186 1.097128e-38
0.85522926 -0.19469282 0.61000198 1.097128e-38
0.86449152 -0.19493696 0.6100021 1.097128e-38
0.46746337 -0.18889962 0.6109826 1.0879084e-38
0.53914648 -0.18072313 0.61913186 1.6598913e-39
0.54247218 -0.18712327 0.61855638 8.3049075e-40
0.70627356 -0.18272205 0.61000103 1.097128e-38
0.71420991 -0.18477237 0.61000097 1.097128e-38
0.72449833 -0.18505207 0.61000103 1.097128e-38
0.73493761 -0.184881 0.61000127 1.097128e-38
0.74540454 -0.18519591 0.61000133 1.097128e-38
0.75474203 -0.18459241 0.61000144 1.097128e-38
0.76420635 -0.18495628 0.6100015 1.097128e-38
0.77517122 -0.18502882 0.61000156 1.097128e-38
0.78489774 -0.18490809 0.61000156 1.097128e-38
0.79475915 -0.18478379 0.61000162 1.097128e-38
0.80474609 -0.18499298 0.61000168 1.097128e-38
0.81487358 -0.18503866 0.61000168 1.097128e-38
0.82534218 -0.18472333 0.61000192 1.097128e-38
0.83382457 -0.18528681 0.61000198 1.097128e-38
0.84456474 -0.18497142 0.61000186 1.097128e-38
0.85544831 -0.18464938 0.61000204 1.097128e-38
0.86426932 -0.18522365 0.6100021 1.097128e-38
0.50810426 -0.17229033 0.61135352 1.0879084e-38
0.67598432 -0.17159076 0.61000085 1.097128e-38
0.68444729 -0.17277943 0.61000091 1.097128e-38
0.69471055 -0.17375611 0.61000097 1.097128e-38
0.70441556 -0.17507242 0.61000085 1.097128e-38
0.71427059 -0.17508228 0.61000097 1.097128e-38
0.72431499 -0.17485097 0.61000097 1.097128e-38
0.73481321 -0.17484097 0.61000127 1.097128e-38
0.74559414 -0.17530866 0.61000144 1.097128e-38
0.75474203 -0.17489323 0.61000144 1.097128e-38
0.76414144 -0.17495325 0.6100015 1.097128e-38
0.77517116 -0.17519365 0.6100015 1.097128e-38
0.78489769 -0.17500819 0.61000156 1.097128e-38
0.79475915 -0.17481825 0.61000162 1.097128e-38
0.80454093 -0.17531691 0.61000162 1.097128e-38
0.81487358 -0.1749392 0.61000168 1.097128e-38
0.8251316 -0.17491372 0.61000186 1.097128e-38
0.83403802 -0.17538141 0.61000192 1.097128e-38
0.84480333 -0.17492084 0.61000186 1.097128e-38
0.85522968 -0.17499204 0.61000204 1.097128e-38
0.86449116 -0.17512192 0.61000216 1.097128e-38
0.5378688 -0.16555016 0.6173901 1.3837066e-39
0.54303074 -0.16184655 0.61734515 1.6606606e-39
0.62684995 -0.16150513 0.61000049 1.0879084e-38
0.63486201 -0.16209221 0.61000055 1.0879084e-38
0.64504981 -0.16276139 0.61000061 1.0879084e-38
0.65491349 -0.16389811 0.61000067 1.0879084e-38
0.66525328 -0.16462144 0.61000073 1.0879084e-38
0.67478287 -0.1650041 0.61000067 1.0879084e-38
0.68466848 -0.16491991 0.61000073 1.0879084e-38
0.69407183 -0.1651008 0.61000091 1.097128e-38
0.70396054 -0.16479653 0.61000085 1.097128e-38
0.71451998 -0.16511612 0.61043215 1.0879084e-38
0.72449881 -0.1651078 0.61000097 1.097128e-38
0.73468924 -0.16480358 0.61000133 1.097128e-38
0.74546748 -0.16519429 0.61000139 1.097128e-38
0.75474197 -0.16519406 0.61000144 1.097128e-38
0.76401222 -0.16471101 0.6100015 1.097128e-38
0.77523661 -0.16510904 0.61000156 1.097128e-38
0.78489769 -0.16510826 0.61000156 1.097128e-38
0.79475915 -0.16485272 0.61000162 1.097128e-38
0.80474621 -0.165599 0.61000168 1.097128e-38
0.81487358 -0.16483974 0.61000168 1.097128e-38
0.82513154 -0.164746 0.61000186 1.097128e-38
0.83403802 -0.1651544 0.61000192 1.097128e-38
0.84456462 -0.16489062 0.61000186 1.097128e-38
0.85500991 -0.16533896 0.6100021 1.097128e-38
0.8644914 -0.16469218 0.61000216 1.097128e-38
0.41401821 -0.15016286 0.6118353 1.0879084e-38
0.43056461 -0.15147497 0.61367095 1.0879084e-38
0.5484525 -0.1564011 0.6135298 6.6384735e-39
0.55474019 -0.15461826 0.61128414 9.496517e-39
0.56511694 -0.15320592 0.61000019 1.0879084e-38
0.57544696 -0.1525785 0.61000025 1.0879084e-38
0.585069 -0.152393 0.61000019 1.0879084e-38
0.59495246 -0.15289383 0.61000031 1.0879084e-38
0.60521388 -0.1541785 0.61000043 1.0879084e-38
0.61510837 -0.1542708 0.61000049 1.0879084e-38
0.62522018 -0.15489185 0.61000055 1.0879084e-38
0.63533282 -0.15494089 0.61000055 1.0879084e-38
0.64407665 -0.15504977 0.61000061 1.0879084e-38
0.65469062 -0.15504909 0.61000067 1.0879084e-38
0.66546828 -0.15504844 0.61000067 1.0879084e-38
0.67461216 -0.15516084 0.61000073 1.0879084e-38
0.68422616 -0.15479143 0.61000079 1.0879084e-38
0.69447219 -0.15508351 0.61000085 1.0879084e-38
0.70418811 -0.15495422 0.61000091 1.0879084e-38
0.71403974 -0.15482146 0.61000097 1.0879084e-38
0.72473294 -0.15512007 0.61000121 1.0879084e-38
0.73487562 -0.15498826 0.61000127 1.0879084e-38
0.7451635 -0.15485279 0.61000133 1.0879084e-38
0.75474197 -0.1554949 0.61000144 1.097128e-38
0.76420635 -0.15469536 0.6100015 1.097128e-38
0.77517128 -0.1550311 0.61000156 1.097128e-38
0.7848978 -0.15520838 0.61000156 1.097128e-38
0.79475915 -0.15488715 0.61000156 1.097128e-38
0.80474627 -0.15556695 0.61000168 1.097128e-38
0.81487358 -0.1547403 0.61000168 1.097128e-38
0.82513189 -0.15491714 0.61000192 1.097128e-38
0.83403802 -0.15492739 0.61000192 1.097128e-38
0.84464467 -0.15484621 0.61000186 1.097128e-38
0.85522926 -0.15529412 0.61000198 1.097128e-38
0.86471313 -0.15458478 0.6100021 1.097128e-38
0.38807657 -0.14090356 0.61279678 1.0879084e-38
0.54813904 -0.14391145 0.61102003 1.0695053e-38
0.56545603 -0.14509568 0.61000001 1.0879084e-38
0.57584727 -0.14490977 0.61000037 1.0879084e-38
0.58511484 -0.14489089 0.61000037 1.0879084e-38
0.59434861 -0.14514208 0.61000043 1.0879084e-38
0.60515457 -0.14495531 0.61000055 1.0879084e-38
0.61525148 -0.14483239 0.61000055 1.0879084e-38
0.62506723 -0.14499877 0.61000055 1.0879084e-38
0.63502318 -0.14516838 0.61000055 1.0879084e-38
0.64443457 -0.14494157 0.61000061 1.0879084e-38
0.65469164 -0.14511248 0.61000067 1.0879084e-38
0.66503811 -0.14506327 0.61000067 1.0879084e-38
0.67493969 -0.14505568 0.61000067 1.0879084e-38
0.68444735 -0.14508566 0.61000073 1.0879084e-38
0.69402361 -0.14488663 0.61000085 1.0879084e-38
0.70441556 -0.14510711 0.61000085 1.0879084e-38
0.71427053 -0.14490697 0.61000097 1.0879084e-38
0.72443718 -0.14492752 0.61000109 1.0879084e-38
0.73506254 -0.14516899 0.61000127 1.0879084e-38
0.74540448 -0.14472042 0.61000133 1.0879084e-38
0.75490987 -0.14545067 0.61000144 1.0879084e-38
0.76420629 -0.14493319 0.6100015 1.0879084e-38
0.77510524 -0.14495461 0.6100015 1.0879084e-38
0.78489769 -0.14530846 0.61000156 1.0879084e-38
0.79475915 -0.14492162 0.61000156 1.0879084e-38
0.80474627 -0.14553495 0.61000162 1.0879084e-38
0.81487358 -0.14464086 0.61000168 1.0879084e-38
0.82492059 -0.1454533 0.61000192 1.0879084e-38
0.83403814 -0.14470035 0.61000192 1.0879084e-38
0.84448534 -0.14507337 0.61000186 1.0879084e-38
0.85522932 -0.14492604 0.61000216 1.0879084e-38
0.86425251 -0.14525059 0.6100021 1.097128e-38
0.54938895 -0.13464582 0.61000007 1.0879084e-38
0.56545597 -0.13496867 0.61000001 1.0879084e-38
0.57570493 -0.13487533 0.61000037 1.0879084e-38
0.5850237 -0.13504283 0.61000037 1.0879084e-38
0.59457672 -0.13512096 0.61000043 1.0879084e-38
0.6054529 -0.1348471 0.61000049 1.0879084e-38
0.61521047 -0.1349418 0.61007178 1.0879084e-38
0.6249128 -0.13510934 0.61000055 1.0879084e-38
0.63531858 -0.13490735 0.61000055 1.0879084e-38
0.64412147 -0.13510481 0.61000061 1.0879084e-38
0.65453029 -0.13500237 0.61000067 1.0879084e-38
0.66546834 -0.13501765 0.61000067 1.0879084e-38
0.67461234 -0.13499612 0.61000073 1.0879084e-38
0.68460578 -0.13514939 0.61000079 1.0879084e-38
0.69424784 -0.13511068 0.61000091 1.0879084e-38
0.7039606 -0.13484088 0.61000085 1.0879084e-38
0.71445209 -0.13522725 0.61000097 1.0879084e-38
0.72431505 -0.13496511 0.61000109 1.0879084e-38
0.73493767 -0.13513076 0.61000127 1.0879084e-38
0.7454046 -0.13508341 0.61000144 1.0879084e-38
0.75474185 -0.13512547 0.61000144 1.0879084e-38
0.76420635 -0.13517103 0.61000144 1.0879084e-38
0.77497417 -0.13463847 0.61000156 1.0879084e-38
0.78489769 -0.13540855 0.61000156 1.0879084e-38
0.79455692 -0.13472196 0.61000156 1.0879084e-38
0.80474609 -0.13550289 0.61000162 1.0879084e-38
0.81473041 -0.1344786 0.61001861 1.0879084e-38
0.82513148 -0.13559981 0.61000186 1.0879084e-38
0.83403802 -0.13447334 0.61000192 1.0879084e-38
0.8443253 -0.13530363 0.61000186 1.0879084e-38
0.85522944 -0.13455796 0.6100021 1.0879084e-38
0.86449128 -0.13548893 0.61000216 1.0879084e-38
0.54938895 -0.12464716 0.61000007 1.0879084e-38
0.56545603 -0.12484168 0.61000025 1.0879084e-38
0.57577634 -0.12483276 0.61000037 1.0879084e-38
0.58493221 -0.12519698 0.61000037 1.0879084e-38
0.59472334 -0.1249263 0.61000043 1.0879084e-38
0.60538149 -0.12492548 0.61000043 1.0879084e-38
0.61496496 -0.12512365 0.61000055 1.0879084e-38
0.62522012 -0.12484607 0.61000055 1.0879084e-38
0.63500965 -0.12513945 0.61000055 1.0879084e-38
0.64428514 -0.12500811 0.61000061 1.0879084e-38
0.6549502 -0.1248664 0.61000067 1.0879084e-38
0.66520065 -0.12519424 0.61017823 1.0879084e-38
0.6750015 -0.12510997 0.61000067 1.0879084e-38
0.68427378 -0.12502159 0.61000079 1.0879084e-38
0.6944086 -0.12510301 0.61000085 1.0879084e-38
0.70418805 -0.1249937 0.61000091 1.0879084e-38
0.71410483 -0.12488171 0.61000097 1.0879084e-38
0.72449869 -0.12521678 0.61000121 1.0879084e-38
0.73463804 -0.12487075 0.61000133 1.0879084e-38
0.7455942 -0.1251896 0.61000144 1.0879084e-38
0.75457436 -0.12480372 0.61000144 1.0879084e-38
0.76420641 -0.12540886 0.61000144 1.0879084e-38
0.77517116 -0.12454392 0.61000156 1.0879084e-38
0.78489769 -0.12550864 0.61000156 1.0879084e-38
0.79475921 -0.12449364 0.61000156 1.0879084e-38
0.80474627 -0.12547088 0.61000168 1.0879084e-38
0.81510311 -0.12467614 0.61000168 1.0879084e-38
0.82513154 -0.12543207 0.61000186 1.0879084e-38
0.83425128 -0.12455827 0.61000198 1.0879084e-38
0.84468943 -0.12518856 0.61020803 1.0879084e-38
0.85544831 -0.12450608 0.61000204 1.0879084e-38
0.86449116 -0.1250592 0.61000216 1.0879084e-38
0.35756525 -0.11865 0.61116171 1.0786889e-38
0.48861912 -0.11863115 0.61342293 1.0879084e-38
0.54938895 -0.11464848 0.61000007 1.0879084e-38
0.56545597 -0.11471464 0.61000007 1.0879084e-38
0.57570511 -0.11496743 0.61000037 1.0879084e-38
0.58506918 -0.11511572 0.61000037 1.0879084e-38
0.59465021 -0.1149141 0.61000043 1.0879084e-38
0.60507202 -0.11519391 0.61000049 1.0879084e-38
0.61510843 -0.1148072 0.61000055 1.0879084e-38
0.62521929 -0.1148436 0.61016959 1.0879084e-38
0.635171 -0.1151099 0.61000055 1.0879084e-38
0.64444923 -0.11490776 0.61000061 1.0879084e-38
0.65444136 -0.11495559 0.61000067 1.0879084e-38
0.66546828 -0.11498683 0.61000067 1.0879084e-38
0.67456537 -0.11506467 0.61000067 1.0879084e-38
0.68466848 -0.11506321 0.61000073 1.0879084e-38
0.69407189 -0.11490609 0.61000091 1.0879084e-38
0.70441556 -0.11514175 0.61000085 1.0879084e-38
0.71427047 -0.11473171 0.61000097 1.0879084e-38
0.72473282 -0.11522254 0.61000121 1.0879084e-38
0.73487568 -0.11480715 0.61000127 1.0879084e-38
0.74546736 -0.1150796 0.61000133 1.0879084e-38
0.75474197 -0.11475836 0.61000144 1.0879084e-38
0.76440102 -0.11538523 0.6100015 1.0879084e-38
0.77517116 -0.11470877 0.61000156 1.0879084e-38
0.78489769 -0.11560873 0.61000156 1.0879084e-38
0.79475915 -0.11452808 0.61000156 1.0879084e-38
0.80474627 -0.11543884 0.61000162 1.0879084e-38
0.81487358 -0.11484604 0.61000168 1.0879084e-38
0.8251316 -0.11526434 0.61000186 1.0879084e-38
0.83403856 -0.11504064 0.61000198 1.0879084e-38
0.84456462 -0.11495125 0.61000186 1.0879084e-38
0.8549934 -0.11523588 0.61000204 1.0879084e-38
0.86449128 -0.11462947 0.61000216 1.0879084e-38
0.38767058 -0.1038375 0.61205196 1.0786889e-38
0.54938895 -0.10464982 0.61000007 1.0879084e-38
0.56559598 -0.10474665 0.61000013 1.0879084e-38
0.57563388 -0.10510381 0.61000037 1.0879084e-38
0.58506906 -0.10483203 0.61000037 1.0879084e-38
0.59450114 -0.10508146 0.61000043 1.0879084e-38
0.60530394 -0.10508463 0.61000049 1.0879084e-38
0.61526537 -0.10492451 0.61000049 1.0879084e-38
0.62491244 -0.10507049 0.61000055 1.0879084e-38
0.63537675 -0.10484947 0.61000055 1.0879084e-38
0.64413542 -0.10507798 0.61000061 1.0879084e-38
0.65495026 -0.10498962 0.61000067 1.0879084e-38
0.66503823 -0.10501423 0.61000067 1.0879084e-38
0.67500156 -0.10493954 0.61000067 1.0879084e-38
0.6842261 -0.10495064 0.61000073 1.0879084e-38
0.69442445 -0.1051117 0.61000091 1.0879084e-38
0.70396054 -0.10488522 0.61000085 1.0879084e-38
0.71427047 -0.10530193 0.61000097 1.0879084e-38
0.72426456 -0.10481791 0.61000115 1.0879084e-38
0.73487568 -0.10524021 0.61000127 1.0879084e-38
0.74516356 -0.10474864 0.61000139 1.0879084e-38
0.75474209 -0.10505918 0.61000144 1.0879084e-38
0.76427096 -0.10514478 0.6100015 1.0879084e-38
0.77517116 -0.10487361 0.61000156 1.0879084e-38
0.78489769 -0.10570883 0.61000156 1.0879084e-38
0.79475921 -0.10456254 0.61000162 1.0879084e-38
0.80474609 -0.10540681 0.61000162 1.0879084e-38
0.81487358 -0.1047466 0.61000168 1.0879084e-38
0.82513154 -0.10509663 0.61000186 1.0879084e-38
0.83382463 -0.10552718 0.61000198 1.0879084e-38
0.84456474 -0.10465417 0.61000186 1.0879084e-38
0.85522938 -0.10552736 0.6100021 1.0879084e-38
0.86471283 -0.10451501 0.6100021 1.0879084e-38
0.39558876 -0.091980122 0.61490613 1.0879084e-38
0.52435523 -0.096280202 0.61907965 1.0879084e-38
0.54938895 -0.094651155 0.61000007 1.0879084e-38
0.56545603 -0.094797119 0.61000001 1.0879084e-38
0.57556218 -0.095241837 0.61000043 1.0879084e-38
0.58520573 -0.094746567 0.61000037 1.0879084e-38
0.59442973 -0.095246427 0.61000043 1.0879084e-38
0.6054529 -0.094802186 0.61000049 1.0879084e-38
0.61496502 -0.095309965 0.61000055 1.0879084e-38
0.62522018 -0.094800264 0.61000055 1.0879084e-38
0.63496518 -0.095099322 0.61000055 1.0879084e-38
0.64449364 -0.094955638 0.61000061 1.0879084e-38
0.65444142 -0.095086269 0.61000067 1.0879084e-38
0.66546834 -0.094956018 0.61000067 1.0879084e-38
0.67456532 -0.094900638 0.61000067 1.0879084e-38
0.68470979 -0.095151238 0.61030281 1.0786889e-38
0.69408685 -0.094919637 0.61000085 1.0879084e-38
0.70418805 -0.095033221 0.61000091 1.0879084e-38
0.71443599 -0.095147289 0.61000097 1.0879084e-38
0.72449881 -0.094823666 0.61000097 1.0879084e-38
0.7351132 -0.095169954 0.61000133 1.0879084e-38
0.74529326 -0.094616614 0.61034596 1.0879084e-38
0.75474191 -0.095360033 0.61000144 1.0879084e-38
0.76414138 -0.094906986 0.6100015 1.0879084e-38
0.77517134 -0.095038451 0.6100015 1.0879084e-38
0.78507274 -0.095450841 0.61000156 1.0879084e-38
0.79475921 -0.094596982 0.61000162 1.0879084e-38
0.80474609 -0.095374785 0.61000162 1.0879084e-38
0.81495047 -0.09489198 0.61000168 1.0879084e-38
0.82513148 -0.094928905 0.61000186 1.0879084e-38
0.83403814 -0.095610701 0.61000186 1.0879084e-38
0.84480333 -0.094591185 0.61000186 1.0879084e-38
0.85522932 -0.095159285 0.61000198 1.0879084e-38
0.86425251 -0.095195547 0.6100021 1.0879084e-38
0.51235753 -0.083748989 0.61999846 1.0879084e-38
0.54938895 -0.084652483 0.61000007 1.0879084e-38
0.56552625 -0.084832862 0.61000013 1.0879084e-38
0.57570499 -0.085193239 0.61000031 1.0879084e-38
0.5851149 -0.084900625 0.61000037 1.0879084e-38
0.59457678 -0.085049458 0.61000043 1.0879084e-38
0.60538155 -0.084882751 0.61000055 1.0879084e-38
0.61510831 -0.084990241 0.61000055 1.0879084e-38
0.62489551 -0.085104793 0.61000055 1.0879084e-38
0.635171 -0.08483889 0.61000055 1.0879084e-38
0.64407653 -0.085142106 0.61000061 1.0879084e-38
0.65505874 -0.08487279 0.61021495 1.0694333e-38
0.66503811 -0.084989727 0.61000067 1.0879084e-38
0.67495501 -0.085003786 0.61000073 1.0879084e-38
0.68444735 -0.085082538 0.61000073 1.0879084e-38
0.6942479 -0.084909655 0.61000091 1.0879084e-38
0.70441556 -0.085176393 0.61000085 1.0879084e-38
0.71408945 -0.084811531 0.61000097 1.0879084e-38
0.72449869 -0.085325792 0.61000121 1.0879084e-38
0.73463815 -0.0846963 0.61000133 1.0879084e-38
0.74540454 -0.084970936 0.61000144 1.0879084e-38
0.75490999 -0.085308872 0.61000144 1.0879084e-38
0.76401228 -0.084671788 0.6100015 1.0879084e-38
0.77517128 -0.085203297 0.61000156 1.0879084e-38
0.7848978 -0.085247777 0.61000156 1.0879084e-38
0.79475915 -0.084631436 0.61000162 1.0879084e-38
0.80474609 -0.085342743 0.61000162 1.0879084e-38
0.81487358 -0.0850522 0.61000168 1.0879084e-38
0.82513148 -0.084761173 0.61000186 1.0879084e-38
0.83403802 -0.085383683 0.61000192 1.0879084e-38
0.84464467 -0.084822424 0.61000186 1.0879084e-38
0.85522938 -0.084791206 0.61000198 1.0879084e-38
0.86449128 -0.085426226 0.61000216 1.0879084e-38
0.54938895 -0.074653812 0.61000007 1.0879084e-38
0.57570499 -0.074984349 0.61000031 1.0879084e-38
0.5848785 -0.075290322 0.61000037 1.0879084e-38
0.59457672 -0.07468985 0.61000043 1.0879084e-38
0.60507196 -0.07516066 0.61000049 1.0879084e-38
0.61525142 -0.07466726 0.61000055 1.0879084e-38
0.62506652 -0.075195789 0.61000055 1.0879084e-38
0.63517106 -0.075045332 0.61000055 1.0879084e-38
0.64416593 -0.074737623 0.61009789 1.0879084e-38
0.65443259 -0.075037032 0.61000067 1.0879084e-38
0.66546834 -0.074925199 0.61000067 1.0879084e-38
0.67462683 -0.07495854 0.61000067 1.0879084e-38
0.68444735 -0.074928172 0.61000079 1.0879084e-38
0.69447225 -0.075120859 0.61000085 1.0879084e-38
0.70396054 -0.074929573 0.61000085 1.0879084e-38
0.71427047 -0.075126678 0.61000097 1.0879084e-38
0.72443718 -0.075552613 0.61000109 1.0879084e-38
0.73487568 -0.075582728 0.61000121 1.0879084e-38
0.74564439 -0.076012775 0.61053205 1.0879084e-38
0.75449771 -0.076650009 0.61000139 1.0879084e-38
0.76366222 -0.076952614 0.61000144 1.0879084e-38
0.77457863 -0.078419343 0.61000156 1.0879084e-38
0.78349769 -0.079873085 0.61000156 1.0879084e-38
0.81574851 -0.078443445 0.61000174 1.0879084e-38
0.82562351 -0.07547088 0.61000192 1.0879084e-38
0.83403802 -0.075156674 0.61000192 1.0879084e-38
0.84422833 -0.075342514 0.61000186 1.0879084e-38
0.85522932 -0.074423127 0.61000198 1.0879084e-38
0.8644914 -0.074996501 0.61000216 1.0879084e-38
0.549389 -0.067988031 0.61000001 1.0879084e-38
0.56538588 -0.065266535 0.61000019 1.0879084e-38
0.57570493 -0.064775474 0.61000037 1.0879084e-38
0.58506918 -0.065411277 0.61000037 1.0879084e-38
0.5948047 -0.064652942 0.61000043 1.0879084e-38
0.60530394 -0.065044291 0.61000043 1.0879084e-38
0.61495167 -0.06505958 0.61000049 1.0879084e-38
0.62522012 -0.064754456 0.61000055 1.0879084e-38
0.635171 -0.065251768 0.61000055 1.0879084e-38
0.6442852 -0.06494993 0.61000061 1.0879084e-38
0.65485144 -0.064883992 0.61000067 1.0879084e-38
0.66503823 -0.064965203 0.61000067 1.0879084e-38
0.67478353 -0.065085784 0.61000073 1.0879084e-38
0.68460584 -0.064983852 0.61000079 1.0879084e-38
0.69402355 -0.064949684 0.61000085 1.0879084e-38
0.70442629 -0.064789958 0.61074728 1.0879083e-38
0.71336383 -0.066719666 0.61000109 1.0879084e-38
0.72064012 -0.069880091 0.61000109 1.0879084e-38
0.82808512 -0.068667777 0.61000186 1.0879084e-38
0.83493412 -0.066206403 0.61000192 1.0879084e-38
0.84456462 -0.065525249 0.61000186 1.0879084e-38
0.85546553 -0.064705521 0.61000204 1.0879084e-38
0.86449128 -0.064566776 0.61000216 1.0879084e-38
0.5593788 -0.059467614 0.61000001 1.0879084e-38
0.56563723 -0.055840552 0.61010045 1.0879084e-38
0.57570499 -0.054566607 0.61000037 1.0879084e-38
0.58506912 -0.055127606 0.61000037 1.0879084e-38
0.59434038 -0.055202648 0.61000037 1.0879084e-38
0.60530394 -0.054598972 0.61000049 1.0879084e-38
0.61510837 -0.055173296 0.61000055 1.0879084e-38
0.62489545 -0.055066343 0.61000055 1.0879084e-38
0.63531852 -0.054769374 0.61000055 1.0879084e-38
0.64428526 -0.055089638 0.61000061 1.0879084e-38
0.65451235 -0.054979656 0.61000067 1.0879084e-38
0.6654225 -0.055128433 0.61000067 1.0879084e-38
0.67478329 -0.055002172 0.61000067 1.0879084e-38
0.68427378 -0.054872878 0.61000073 1.0879084e-38
0.69447458 -0.055060823 0.61047375 1.0879084e-38
0.70352393 -0.055893857 0.61093777 1.05103e-38
0.84607828 -0.057363145 0.61000198 1.0879084e-38
0.85522908 -0.055759326 0.61000204 1.0879084e-38
0.86473024 -0.05478986 0.6100021 1.0879084e-38
0.33554009 -0.046549629 0.61069244 0
0.4288758 -0.047693036 0.6152004 1.0786889e-38
0.44368768 -0.042915337 0.61796302 5.8097764e-39
0.56651574 -0.045093909 0.61000001 1.0879084e-38
0.57584727 -0.044511311 0.61000037 1.0879084e-38
0.58506912 -0.044843927 0.61000037 1.0879084e-38
0.59457678 -0.045337569 0.61000043 1.0879084e-38
0.6054706 -0.044831101 0.61000043 1.0879084e-38
0.61510831 -0.044649664 0.61000055 1.0879084e-38
0.6250667 -0.045153458 0.61000055 1.0879084e-38
0.63500959 -0.045019984 0.61000055 1.0879084e-38
0.64444929 -0.044980757 0.61000061 1.0879084e-38
0.65469128 -0.044845529 0.61000067 1.0879084e-38
0.66509879 -0.045159776 0.61000067 1.0879084e-38
0.67478341 -0.044918556 0.61000073 1.0879084e-38
0.68462133 -0.045132168 0.61000079 1.0879084e-38
0.69373775 -0.045196407 0.61164433 1.0879084e-38
0.70043844 -0.048032749 0.61000097 1.0879084e-38
0.85830039 -0.047603101 0.61000204 1.0879084e-38
0.86426926 -0.045485076 0.6100021 1.0879084e-38
0.55797255 -0.033203296 0.61000007 1.0879084e-38
0.56545603 -0.035386406 0.61000019 1.0879084e-38
0.57570553 -0.034998376 0.61000037 1.0879084e-38
0.58506912 -0.034560248 0.61000037 1.0879084e-38
0.59457678 -0.034977946 0.61000043 1.0879084e-38
0.60515451 -0.035292093 0.61000043 1.0879084e-38
0.61510837 -0.035003014 0.61000049 1.0879084e-38
0.62522 -0.034708653 0.61000055 1.0879084e-38
0.635171 -0.034980748 0.61000055 1.0879084e-38
0.64413536 -0.035167281 0.61000061 1.0879084e-38
0.6546911 -0.034909025 0.61000067 1.0879084e-38
0.66542256 -0.035098284 0.61000067 1.0879084e-38
0.67482531 -0.034963179 0.61017776 1.0878724e-38
0.684883 -0.034820639 0.61163723 1.0787247e-38
0.69109368 -0.03789169 0.6121707 1.0694692e-38
0.85733896 -0.032721978 0.61248738 1.0879084e-38
0.86471301 -0.035222951 0.6100021 1.0879084e-38
0.549389 -0.025493689 0.61000001 1.0879084e-38
0.56545585 -0.0252594 0.61000025 1.0879084e-38
0.57556212 -0.025488971 0.61000025 1.0879084e-38
0.58525968 -0.024672316 0.61000037 1.0879084e-38
0.59457672 -0.024618328 0.61000043 1.0879084e-38
0.605304 -0.025003914 0.61000049 1.0879084e-38
0.61510837 -0.025356347 0.61000055 1.0879084e-38
0.62489545 -0.025027892 0.61000055 1.0879084e-38
0.63517106 -0.025187183 0.61000055 1.0879084e-38
0.64428514 -0.024612337 0.61000061 1.0879084e-38
0.65469134 -0.024972534 0.61000067 1.0879084e-38
0.66509873 -0.025134364 0.61000067 1.0879084e-38
0.67556429 -0.024291782 0.61149049 1.0879083e-38
0.68207753 -0.02637141 0.61231631 1.0787247e-38
0.84911132 -0.021374898 0.61000198 1.0879084e-38
0.85544837 -0.024367284 0.61000204 1.0879084e-38
0.86449128 -0.024933806 0.61000216 1.0879084e-38
0.37125385 -0.013101403 0.61532736 1.0786889e-38
0.40761739 -0.014388716 0.61087394 1.0786889e-38
0.549389 -0.012995354 0.61000001 1.0879084e-38
0.56545603 -0.015132384 0.61000007 1.0879084e-38
0.57570493 -0.015432566 0.61000031 1.0879084e-38
0.5848785 -0.015311083 0.61000037 1.0879084e-38
0.59474075 -0.014926813 0.61000037 1.0879084e-38
0.60530394 -0.014558603 0.61000043 1.0879084e-38
0.61510843 -0.014832719 0.61000055 1.0879084e-38
0.62506676 -0.015111127 0.61000055 1.0879084e-38
0.63517118 -0.015393619 0.61000055 1.0879084e-38
0.64428514 -0.01475204 0.61000061 1.0879084e-38
0.65469116 -0.015036041 0.61000067 1.0879084e-38
0.66525316 -0.015324299 0.61000067 1.0879084e-38
0.67384499 -0.015500658 0.61237907 1.097092e-38
0.84690338 -0.014282078 0.61000198 1.0879084e-38
0.85522932 -0.014288292 0.61000216 1.0879084e-38
0.8644914 -0.014504076 0.61000216 1.0879084e-38
0.549389 -0.0088292416 0.61000001 1.0879084e-38
0.56545603 -0.005005375 0.61000001 1.0879084e-38
0.57570511 -0.0052236891 0.61000037 1.0879084e-38
0.58506918 -0.005423157 0.61000037 1.0879084e-38
0.59442973 -0.0054732128 0.61000043 1.0879084e-38
0.60530394 -0.0049837367 0.61000043 1.0879084e-38
0.61510837 -0.0051860595 0.61000049 1.0879084e-38
0.62506676 -0.0045079542 0.61000055 1.0879084e-38
0.63517094 -0.0047097346 0.61000055 1.0879084e-38
0.64428514 -0.0048917406 0.61000061 1.0879084e-38
0.65469116 -0.0050995476 0.61000067 1.0879084e-38
0.66549248 -0.005335459 0.61206973 1.0878724e-38
0.67256624 -0.0079059144 0.61111873 1.0879084e-38
0.83702624 -0.0015679058 0.61000192 1.0879084e-38
0.84483075 -0.0052015786 0.61000192 1.0879084e-38
0.85522932 -0.0049570207 0.61000204 1.0879084e-38
0.86449128 -0.0051173191 0.6100021 1.0879084e-38
0.41376755 0.0073941383 0.61062044 1.0786889e-38
0.549389 0.0078352056 0.61000001 1.0786889e-38
0.56559241 0.0051716962 0.61026579 1.0786889e-38
0.57570487 0.0049851891 0.61000031 1.0879084e-38
0.58506924 0.0048605218 0.61000037 1.0879084e-38
0.59457684 0.0047339448 0.61000043 1.0879084e-38
0.60530382 0.0045911316 0.61000049 1.0879084e-38
0.61510843 0.0044606007 0.61000055 1.0879084e-38
0.62498373 0.0052713808 0.61017478 1.0879084e-38
0.63517112 0.0050838292 0.61000055 1.0879084e-38
0.64428514 0.0049685575 0.61000061 1.0879084e-38
0.65496737 0.0050407462 0.61059952 1.0786529e-38
0.66257781 0.0037250589 0.61216086 1.0878723e-38
0.8348524 0.0055334824 0.61000198 1.0879084e-38
0.84456474 0.0044949311 0.61000186 1.0879084e-38
0.85522932 0.0043742484 0.61000198 1.0879084e-38
0.86449116 0.0042694369 0.61000216 1.0879084e-38
0.40926969 0.010663887 0.61049068 1.0786889e-38
0.44640547 0.0164138 0.61977243 8.3064685e-39
0.549389 0.014500984 0.61000001 1.0786889e-38
0.56545597 0.015248645 0.61000007 1.0786889e-38
0.57570493 0.015194068 0.61000025 1.0879084e-38
0.58506906 0.015144199 0.61000037 1.0879084e-38
0.59457678 0.015093569 0.61000043 1.0879084e-38
0.60530394 0.015036445 0.61000043 1.0879084e-38
0.61510843 0.014984231 0.61000055 1.0879084e-38
0.62506664 0.014931202 0.61000055 1.0879084e-38
0.63517112 0.014877391 0.61000055 1.0879084e-38
0.64450651 0.015008335 0.6103459 1.0879084e-38
0.65374827 0.01412814 0.61122537 1.097092e-38
0.82644337 0.01600533 0.61000186 1.0879084e-38
0.83403808 0.014841068 0.61000192 1.0879084e-38
0.84456474 0.01479202 0.61000186 1.0879084e-38
0.85522938 0.014742326 0.6100021 1.0879084e-38
0.86449128 0.014699168 0.61000216 1.0879084e-38
0.52755314 0.022890653 0.61120713 1.0786889e-38
0.57565254 0.025359407 0.61012179 1.0786889e-38
0.58506918 0.025427878 0.61000037 1.0786889e-38
0.59457672 0.025453188 0.61000043 1.0786889e-38
0.60530388 0.025481757 0.61000049 1.0879084e-38
0.61510837 0.025507858 0.61000055 1.0879084e-38
0.62506676 0.025534375 0.61000055 1.0879084e-38
0.63500965 0.024924366 0.61000055 1.0879084e-38
0.6448223 0.024685444 0.61188114 1.1063474e-38
0.65061933 0.022449709 0.61000067 1.0879084e-38
0.81827307 0.02672275 0.6100018 1.0879084e-38
0.82513154 0.025050294 0.61000186 1.0879084e-38
0.83403808 0.025068082 0.61000192 1.0879084e-38
0.84456474 0.025089106 0.61000186 1.0879084e-38
0.85522926 0.025110401 0.61000216 1.0879084e-38
0.8644914 0.025128897 0.61000216 1.0879084e-38
0.3842898 0.031763569 0.61812979 1.0786889e-38
0.4122456 0.030224182 0.61931795 1.0786889e-38
0.48648712 0.031984542 0.61557114 1.0786889e-38
0.50201035 0.037447479 0.6165002 1.0786889e-38
0.549389 0.031165432 0.61000001 1.0786889e-38
0.57570481 0.035611819 0.61000025 1.0786889e-38
0.58487856 0.035319362 0.61000037 1.0786889e-38
0.59476936 0.034810115 0.61012334 1.0786889e-38
0.60530394 0.035056621 0.61000043 1.0786889e-38
0.61510837 0.035154521 0.61000049 1.0786889e-38
0.6250667 0.035253953 0.61000055 1.0786889e-38
0.63531834 0.034658957 0.61000055 1.0786889e-38
0.64285403 0.034216151 0.61251676 1.1063474e-38
0.8076213 0.039086968 0.61000174 1.0879084e-38
0.8153584 0.03546913 0.61000162 1.0879084e-38
0.82513154 0.035218026 0.61000186 1.0879084e-38
0.83403808 0.035295095 0.61000192 1.0879084e-38
0.84456462 0.035386182 0.61000186 1.0879084e-38
0.85522932 0.035478476 0.61000216 1.0879084e-38
0.86449128 0.035558626 0.61000216 1.0879084e-38
0.32557282 0.048632659 0.61548656 7.8366285e-39
0.57554621 0.045162797 0.61000007 1.0786889e-38
0.5852598 0.044673488 0.61000037 1.0786889e-38
0.59457684 0.044445839 0.61000043 1.0786889e-38
0.60530388 0.044631496 0.61000043 1.0786889e-38
0.61510843 0.044801176 0.61000055 1.0786889e-38
0.62506682 0.04497353 0.61000055 1.0786889e-38
0.63547719 0.045032836 0.61046237 1.0786529e-38
0.64414698 0.045489963 0.61029708 1.0786889e-38
0.650967 0.048485003 0.61000067 1.0786889e-38
0.80552965 0.045996603 0.61000162 1.0879084e-38
0.8148737 0.045228705 0.61000168 1.0879084e-38
0.82513154 0.045385759 0.61000186 1.0879084e-38
0.83403814 0.045522112 0.61000192 1.0879084e-38
0.84456462 0.045683272 0.61000186 1.0879084e-38
0.85500991 0.045546379 0.61000204 1.0879084e-38
0.86449128 0.044945385 0.6100021 1.0879084e-38
0.55612022 0.051948495 0.61000007 1.0786889e-38
0.56207043 0.05201903 0.61000007 1.0786889e-38
0.57742637 0.050680745 0.61000013 1.0786889e-38
0.58506912 0.051137071 0.61000019 1.0786889e-38
0.59457672 0.052215558 0.61000025 1.0786889e-38
0.6048044 0.052185353 0.61000025 1.0786889e-38
0.61565739 0.052853953 0.61000043 1.0786889e-38
0.62498373 0.055083439 0.61000055 1.0786889e-38
0.63517112 0.054941963 0.61000055 1.0786889e-38
0.64428526 0.055166446 0.61000061 1.0786889e-38
0.654526 0.055273555 0.61030459 1.0602497e-38
0.66433269 0.057884976 0.61000067 1.0786889e-38
0.79795045 0.055704519 0.61000162 1.0786889e-38
0.80474627 0.055105686 0.61000168 1.0786889e-38
0.8148737 0.055328142 0.61000168 1.0786889e-38
0.8251316 0.055553485 0.61000186 1.0786889e-38
0.8340382 0.055749126 0.61000192 1.0786889e-38
0.84429789 0.055246934 0.61000192 1.0786889e-38
0.85546553 0.054783303 0.61000204 1.0786889e-38
0.86449116 0.054332137 0.61000216 1.0786889e-38
0.4918142 0.061041657 0.61089349 8.2128548e-39
0.62804008 0.061555933 0.61000049 1.0786889e-38
0.63554806 0.064197458 0.61000055 1.0786889e-38
0.6442852 0.065026738 0.61000061 1.0786889e-38
0.65453035 0.065197803 0.61000067 1.0786889e-38
0.66525328 0.06478636 0.61000067 1.0786889e-38
0.67392671 0.066106506 0.61000073 1.0786889e-38
0.68161041 0.068369262 0.61000085 1.0786889e-38
0.79523116 0.065196604 0.61000162 1.0786889e-38
0.80474609 0.065137714 0.61000162 1.0786889e-38
0.8148737 0.065427594 0.61000162 1.0786889e-38
0.8251316 0.065721206 0.61000186 1.0786889e-38
0.83380854 0.065339603 0.61000198 1.0786889e-38
0.84480333 0.06444069 0.61000186 1.0786889e-38
0.85522926 0.064509079 0.6100021 1.0786889e-38
0.86449128 0.06476187 0.61000216 1.0786889e-38
0.36730057 0.074476913 0.61520195 1.0786889e-38
0.64514542 0.072455183 0.61000055 1.0786889e-38
0.6551767 0.074787863 0.61000067 1.0786889e-38
0.66525322 0.074800186 0.61000067 1.0786889e-38
0.67478347 0.07516814 0.61000067 1.0786889e-38
0.68425119 0.074659906 0.61048681 1.0786889e-38
0.69375449 0.07720241 0.61000097 1.0786889e-38
0.70418805 0.078175925 0.61000103 1.0786889e-38
0.71427059 0.078578606 0.61000109 1.0786889e-38
0.72394621 0.078828998 0.61000109 1.0786889e-38
0.73487568 0.078444883 0.61000121 1.0786889e-38
0.74540466 0.07885839 0.61000127 1.0786889e-38
0.75474209 0.079225101 0.61000133 1.0786889e-38
0.7642808 0.078722641 0.61165285 1.0786889e-38
0.77471262 0.079351909 0.6100015 1.0786889e-38
0.7857374 0.075685985 0.61000156 1.0786889e-38
0.79475915 0.074817404 0.61000162 1.0786889e-38
0.80474609 0.075169735 0.61000162 1.0786889e-38
0.8148737 0.075527035 0.61000168 1.0786889e-38
0.82492059 0.075590432 0.61000192 1.0786889e-38
0.83425128 0.074456632 0.61000192 1.0786889e-38
0.84456462 0.074515119 0.61000186 1.0786889e-38
0.85522932 0.074877165 0.61000216 1.0786889e-38
0.8644914 0.075191595 0.61000216 1.0786889e-38
0.49181026 0.087463006 0.61997104 8.3064685e-39
0.65857792 0.081488095 0.61000067 1.0786889e-38
0.66588998 0.083443217 0.61000067 1.0786889e-38
0.67467147 0.085256912 0.61010277 1.0786889e-38
0.68444735 0.08477249 0.61000079 1.0786889e-38
0.69408685 0.085006185 0.61000085 1.0786889e-38
0.70418805 0.084729776 0.61000091 1.0786889e-38
0.71427065 0.085179456 0.61000097 1.0786889e-38
0.72468293 0.085371748 0.61000109 1.0786889e-38
0.73470503 0.084925681 0.61000133 1.0786889e-38
0.74540454 0.0846406 0.61000133 1.0786889e-38
0.75474209 0.085044608 0.61000144 1.0786889e-38
0.76420635 0.085454114 0.61000144 1.0786889e-38
0.77523679 0.085180439 0.61000156 1.0786889e-38
0.78489763 0.084369399 0.61000156 1.0786889e-38
0.79475939 0.084782958 0.61000156 1.0786889e-38
0.80474609 0.085201763 0.61000162 1.0786889e-38
0.81487358 0.085626498 0.61000162 1.0786889e-38
0.82513189 0.085038498 0.61000192 1.0786889e-38
0.83403832 0.084384784 0.61000192 1.0786889e-38
0.84456474 0.084812194 0.61000186 1.0786889e-38
0.85522932 0.085245244 0.61000198 1.0786889e-38
0.86449116 0.085621335 0.61000216 1.0786889e-38
0.35998988 0.094943158 0.61330396 1.0786889e-38
0.51224738 0.098247729 0.61949933 8.4901451e-39
0.67646199 0.091570333 0.61000085 1.0786889e-38
0.68494797 0.094411224 0.61000085 1.0786889e-38
0.69442439 0.095185213 0.61000085 1.0786889e-38
0.70418805 0.095028698 0.61000085 1.0786889e-38
0.71427059 0.094609216 0.61000091 1.0786889e-38
0.72449869 0.095133469 0.61000127 1.0786889e-38
0.73506254 0.095400847 0.61000127 1.0786889e-38
0.7451635 0.094790272 0.61000133 1.0786889e-38
0.75474203 0.094743796 0.61000144 1.0786889e-38
0.76420653 0.095216282 0.6100015 1.0786889e-38
